0.999948084354 0.00204252265394 -0.00422448990867 -0.00905880331993 20.8409366608 -0.438479959965 0.461537659168
0.999948084354 0.00201572664082 -0.00424756249413 -0.00905253645033 21.1287136078 -0.447404265404 0.466726571321
0.999947488308 0.00222081271932 -0.00431505497545 -0.0090367551893 21.4270820618 -0.46113473177 0.477288007736
0.999946951866 0.00253450800665 -0.00433903653175 -0.00900017190725 21.7211818695 -0.475931912661 0.480038940907
0.999944806099 0.00273857847787 -0.00440646940842 -0.00915046595037 22.0204486847 -0.497498095036 0.495337545872
0.999942660332 0.00284928781912 -0.00443116761744 -0.009336697869 22.316034317 -0.51176482439 0.501742124557
0.999940991402 0.00293507846072 -0.00443637557328 -0.00948744267225 22.6167201996 -0.526418566704 0.502764821053
0.999941110611 0.00288274022751 -0.00446963543072 -0.00947295222431 22.918548584 -0.535779118538 0.510150671005
0.999941647053 0.00309531507082 -0.00447415234521 -0.00934137031436 23.2142047882 -0.540797293186 0.508305251598
0.999942839146 0.0032625393942 -0.00451354077086 -0.00914002023637 23.5203971863 -0.554295182228 0.514478743076
0.999942183495 0.0034921427723 -0.00460852310061 -0.00907823443413 23.8169288635 -0.560219347477 0.533312857151
0.999941170216 0.00328176375479 -0.00460023619235 -0.0092691918835 24.1153869629 -0.573782503605 0.526361763477
0.999940693378 0.00298865721561 -0.00464509613812 -0.00939773768187 24.4239635468 -0.580276370049 0.535983979702
0.999939799309 0.00316144502722 -0.00469807256013 -0.00940828211606 24.7337970734 -0.587897360325 0.545010924339
0.999941408634 0.00308944750577 -0.00471926946193 -0.00925151910633 25.0354156494 -0.594056665897 0.547694861889
0.999940872192 0.00317144393921 -0.00479299901053 -0.00924256443977 25.3429908752 -0.603196978569 0.567156374454
0.999940872192 0.00297885108739 -0.00481768324971 -0.00929928012192 25.6448745728 -0.606176793575 0.570465564728
0.999941110611 0.00287067168392 -0.00484239589423 -0.00929013919085 25.9495601654 -0.610762774944 0.571215748787
0.999941170216 0.00278004142456 -0.00489786593243 -0.00928318407387 26.2573356628 -0.618451178074 0.578297734261
0.999941885471 0.00267909839749 -0.00494436686859 -0.00921074580401 26.5607452393 -0.622584760189 0.584463834763
0.999940693378 0.00285326736048 -0.00498021347448 -0.00926884729415 26.866651535 -0.631668806076 0.590457379818
0.999941587448 0.00280176359229 -0.00501743098721 -0.00916893128306 27.1691951752 -0.63604259491 0.592648565769
0.999942481518 0.00299712526612 -0.00504713598639 -0.00899333972484 27.4736671448 -0.645508348942 0.592723309994
0.99994301796 0.00323555897921 -0.00511859729886 -0.00881116744131 27.7776966095 -0.654745280743 0.602857112885
0.999942421913 0.00334767135791 -0.00519208982587 -0.00879192724824 28.0754585266 -0.667424738407 0.610898911953
0.999942600727 0.00323608354665 -0.00521642016247 -0.00880115572363 28.3817996979 -0.670635104179 0.613401591778
0.999942421913 0.00314992410131 -0.00529725337401 -0.00880621746182 28.6992282867 -0.675985634327 0.629753172398
0.999942541122 0.00323607912287 -0.00535531667992 -0.00872611440718 29.0100593567 -0.679579913616 0.638708591461
0.999943912029 0.00317206117325 -0.00538214715198 -0.00857150182128 29.3176345825 -0.680184841156 0.643720149994
0.999943256378 0.00312938611023 -0.00544944033027 -0.00862199254334 29.6306648254 -0.688574790955 0.65622895956
0.999941825867 0.00322957453318 -0.00547684915364 -0.00873088184744 29.9422588348 -0.695578098297 0.660032510757
0.999941945076 0.00346900499426 -0.00550530385226 -0.00860795658082 30.2562465668 -0.700528681278 0.668991029263
0.999941468239 0.00367409456521 -0.005570393987 -0.00854007061571 30.5738334656 -0.709432542324 0.681472301483
0.999942183495 0.00340595562011 -0.00554798403755 -0.00857547298074 30.8786945343 -0.714695394039 0.674269497395
0.999941885471 0.00324368709698 -0.00563158001751 -0.00862055737525 31.2008705139 -0.715202271938 0.690208435059
0.999941110611 0.00323986378498 -0.00565018830821 -0.00870345160365 31.5139331818 -0.719348669052 0.69156897068
0.999941706657 0.00308930571191 -0.00566900381818 -0.00867477525026 31.827167511 -0.726248443127 0.694713592529
0.999941170216 0.00327244028449 -0.00572946434841 -0.00862913951278 32.1440162659 -0.731590628624 0.71348965168
0.999940693378 0.0030634617433 -0.00572087289765 -0.00876398384571 32.4508857727 -0.735846698284 0.709756016731
0.999941110611 0.00275538256392 -0.00575181236491 -0.00880126096308 32.7683143616 -0.734021544456 0.715358495712
0.999941825867 0.00251132389531 -0.00579272862524 -0.00876798667014 33.085231781 -0.731501221657 0.72312605381
0.999941110611 0.00279898568988 -0.00583944842219 -0.0087304469198 33.4053535461 -0.738459229469 0.739433169365
0.999940574169 0.00310946488753 -0.00585370510817 -0.00867717340589 33.723033905 -0.748481988907 0.748675405979
0.999940514565 0.00311815366149 -0.00583548704162 -0.00868764240295 34.0400123596 -0.756391167641 0.750642061234
0.999939203262 0.00332776759751 -0.00586035614833 -0.00874358322471 34.3613014221 -0.764988601208 0.766464412212
0.999938666821 0.00337588833645 -0.00585765391588 -0.00879311189055 34.6763839722 -0.76860588789 0.772167801857
0.999936878681 0.00363762350753 -0.00584981404245 -0.00889879278839 35.002986908 -0.781137883663 0.779919862747
0.999936580658 0.00376895279624 -0.00589023344219 -0.00884593743831 35.3238334656 -0.785549581051 0.795325398445
0.99993544817 0.00378588819876 -0.00592110026628 -0.00895184930414 35.6447296143 -0.798171281815 0.805708646774
0.999934971333 0.00380803551525 -0.00592442881316 -0.00899114087224 35.9616622925 -0.803671360016 0.816365778446
0.999934375286 0.00368816545233 -0.00595531240106 -0.00908279512078 36.2827262878 -0.810591101646 0.824266672134
0.999933600426 0.00375374406576 -0.00598228583112 -0.00912743154913 36.5979995728 -0.816399633884 0.832210958004
0.999932765961 0.00383574538864 -0.0060341861099 -0.00915117375553 36.9192886353 -0.8263220191 0.84477865696
0.999932229519 0.00396732008085 -0.00602270988747 -0.00916169118136 37.2321128845 -0.834740698338 0.843449354172
0.999930918217 0.00414678175002 -0.00606410205364 -0.00920012127608 37.5515174866 -0.846501350403 0.853502631187
0.999930202961 0.00421217223629 -0.00609019817784 -0.00922413542867 37.8668212891 -0.855180799961 0.86147993803
0.999929189682 0.0042196274735 -0.00608609989285 -0.00933507084846 38.1876564026 -0.863565325737 0.865066409111
0.999927818775 0.00429042894393 -0.00610905792564 -0.00943634286523 38.5031204224 -0.871734976768 0.869100987911
0.999928474426 0.00412212125957 -0.00607372494414 -0.00946362968534 38.822681427 -0.875764131546 0.875323653221
0.999927759171 0.00418982421979 -0.00607521878555 -0.00951125845313 39.1434555054 -0.881907165051 0.882696151733
0.999927818775 0.00418830476701 -0.00607069861144 -0.00950654689223 39.4548912048 -0.887503087521 0.883737504482
0.999927759171 0.00427087722346 -0.00607360433787 -0.00947520136833 39.7739448547 -0.895237028599 0.889152407646
0.999927759171 0.00443907175213 -0.00602559139952 -0.00943064596504 40.0936317444 -0.903029859066 0.893591582775
0.999927461147 0.00453891651705 -0.0060006021522 -0.00942853558809 40.411529541 -0.912591457367 0.89882093668
0.999927461147 0.00456244405359 -0.00599664403126 -0.00941891409457 40.7249641418 -0.919371962547 0.900326192379
0.999927699566 0.00476707750931 -0.00593413133174 -0.00933131482452 41.0357284546 -0.923959851265 0.9037976861
0.999927043915 0.0048660216853 -0.005986047443 -0.00932208821177 41.3457565308 -0.932855784893 0.912134706974
0.999925911427 0.00489610619843 -0.00605145376176 -0.00938536040485 41.6594772339 -0.940776228905 0.919557571411
0.999925851822 0.00478121591732 -0.00611494388431 -0.00941244792193 41.9680900574 -0.941490769386 0.927442371845
0.999925792217 0.00461264885962 -0.00615557003766 -0.00947308260947 42.2877082825 -0.945078969002 0.9339184165
0.999924957752 0.00468195462599 -0.00613117963076 -0.0095480568707 42.610710144 -0.953096210957 0.941096901894
0.999925136566 0.00476053636521 -0.00610162131488 -0.00950569100678 42.9223976135 -0.954983592033 0.942252099514
0.999924123287 0.00490911584347 -0.00614955229685 -0.00950578879565 43.2431182861 -0.964992284775 0.953825116158
0.999922692776 0.00510340742767 -0.00614960491657 -0.00955411233008 43.5634422302 -0.974329292774 0.964087307453
0.999921858311 0.00513005023822 -0.00616903509945 -0.00961566716433 43.8816795349 -0.983891308308 0.966513574123
0.999920129776 0.00533000938594 -0.00624399585649 -0.00963817257434 44.2046165466 -0.994504332542 0.977868437767
0.99991953373 0.00537516875193 -0.00628395332024 -0.00964960455894 44.5281867981 -1.00160121918 0.987825512886
0.999917924404 0.00556123908609 -0.00633959053084 -0.00967785716057 44.8570022583 -1.01062059402 1.00134539604
0.999916434288 0.00568615738302 -0.00633504614234 -0.00976036675274 45.1788291931 -1.02099311352 1.01067483425
0.99991518259 0.00575842056423 -0.00638811104 -0.00981071405113 45.4991378784 -1.02544283867 1.02211630344
0.999913454056 0.00585890514776 -0.00639891298488 -0.0099185667932 45.8185577393 -1.0337959528 1.03228390217
0.999912381172 0.00590182095766 -0.00634842459112 -0.0100354254246 46.1378974915 -1.04328560829 1.03807783127
0.999911129475 0.00613631401211 -0.00632884027436 -0.0100297145545 46.4597015381 -1.05084276199 1.04702961445
0.999908924103 0.00658809952438 -0.0062500895001 -0.0100146597251 46.7785491943 -1.06236541271 1.05762338638
0.999907791615 0.00686214864254 -0.00615886319429 -0.00999906193465 47.0915145874 -1.07214319706 1.06250882149
0.999905467033 0.00721044186503 -0.00608917884529 -0.0100258346647 47.4044075012 -1.08405816555 1.07166099548
0.999904096127 0.00743044307455 -0.0060185356997 -0.0100471880287 47.7180976868 -1.09176385403 1.07849884033
0.999902188778 0.00755057437345 -0.00595732033253 -0.0101811010391 48.0334815979 -1.10446608067 1.0828114748
0.999901890755 0.00766845559701 -0.00588309438899 -0.010163472034 48.3473320007 -1.10915744305 1.09028291702
0.99990016222 0.00781724974513 -0.00587165355682 -0.0102298306301 48.6574821472 -1.11648011208 1.0978717804
0.999898076057 0.00807992741466 -0.0057983272709 -0.0102695114911 48.9766845703 -1.12614607811 1.10213899612
0.999896585941 0.00836347974837 -0.00571541674435 -0.0102356644347 49.2932701111 -1.13697457314 1.10922312737
0.999893903732 0.00873763021082 -0.00556427473202 -0.0102650793269 49.6112861633 -1.1504856348 1.11116266251
0.999889433384 0.00916321203113 -0.00548287294805 -0.0103747490793 49.9292678833 -1.16670894623 1.11811542511
0.999885797501 0.00949320942163 -0.00540463393554 -0.010469339788 50.2510223389 -1.18090605736 1.1213092804
0.999882698059 0.00986055005342 -0.00525400554761 -0.0105028534308 50.5724945068 -1.1990031004 1.12144434452
0.999881267548 0.0101772630587 -0.00518845906481 -0.010369617492 50.8856887817 -1.20563042164 1.1265630722
0.999877691269 0.0104492446408 -0.0051576658152 -0.0104599473998 51.2053833008 -1.22326040268 1.13118565083
0.999874770641 0.0106590054929 -0.0051805395633 -0.0105167608708 51.5223503113 -1.23129212856 1.14135885239
0.999873042107 0.0107619641349 -0.00520628783852 -0.0105608468875 51.8477630615 -1.24112176895 1.15051341057
0.999873578548 0.0107366126031 -0.00529931532219 -0.0104943728074 52.1584777832 -1.24425590038 1.15983605385
0.999872505665 0.0107936356217 -0.00533490022644 -0.010521418415 52.4769210815 -1.25856745243 1.16936695576
0.999869525433 0.0111086219549 -0.00527409091592 -0.0105033256114 52.7930145264 -1.27247846127 1.17361783981
0.999866068363 0.011484243907 -0.00523187126964 -0.0104532400146 53.1134643555 -1.29022181034 1.17627334595
0.999862551689 0.0119231808931 -0.00511079560965 -0.0103571657091 53.4337043762 -1.30623376369 1.17920899391
0.999858021736 0.0123863769695 -0.00505884364247 -0.0102716516703 53.7532272339 -1.31993639469 1.18603551388
0.999855160713 0.0126442015171 -0.00505311368033 -0.0102442000061 54.0709075928 -1.33437538147 1.1924418211
0.99985563755 0.012682268396 -0.00507326517254 -0.0101407300681 54.3945655823 -1.34307742119 1.19702243805
0.999853253365 0.0129627045244 -0.00508929137141 -0.0100117968395 54.7107505798 -1.3537555933 1.20469176769
0.999848783016 0.0133895436302 -0.00506045343354 -0.00990884099156 55.0308876038 -1.36987161636 1.20995974541
0.999847769737 0.0135924499482 -0.0050240168348 -0.00975570827723 55.344833374 -1.37923395634 1.21292436123
0.99984395504 0.0139443082735 -0.00503777619451 -0.00963868759573 55.6562042236 -1.38710796833 1.22343599796
0.999841749668 0.0141427218914 -0.00511346338317 -0.00954141281545 55.9680633545 -1.39702486992 1.23689043522
0.999838113785 0.0144866928458 -0.00511817494407 -0.00939803104848 56.2712249756 -1.40707862377 1.24275648594
0.999833166599 0.0149166518822 -0.00511900428683 -0.0092545170337 56.5911140442 -1.42126333714 1.2525434494
0.999822795391 0.0157309602946 -0.00501000368968 -0.00908441003412 56.8998031616 -1.43349301815 1.25431740284
0.99981290102 0.0164378471673 -0.00494274776429 -0.00895480532199 57.2188835144 -1.45077490807 1.25538539886
0.999810218811 0.0166493002325 -0.0049395323731 -0.00886741187423 57.5271644592 -1.46210610867 1.26500058174
0.999812066555 0.016542352736 -0.00500036776066 -0.00882096961141 57.8414001465 -1.47264504433 1.27408134937
0.999814748764 0.0164367947727 -0.00506483064964 -0.0086777433753 58.1440124512 -1.47743606567 1.28338372707
0.999820888042 0.0161205325276 -0.0052061569877 -0.00848048552871 58.4531898499 -1.48016762733 1.29440665245
0.999825358391 0.0159003380686 -0.00529991323128 -0.00830490607768 58.7624816895 -1.48530519009 1.3000190258
0.999828398228 0.0157171227038 -0.00544331967831 -0.00819647219032 59.0679092407 -1.49059665203 1.30907273293
0.999829649925 0.0156417954713 -0.00551380263641 -0.00814168620855 59.3640213013 -1.49767482281 1.31194102764
0.999830663204 0.0156391654164 -0.00547684729099 -0.00804845523089 59.6605186462 -1.50546717644 1.31551551819
0.999830365181 0.0157075151801 -0.00549872359261 -0.00793240685016 59.9646339417 -1.514367342 1.32472467422
0.999832868576 0.015634002164 -0.00546317640692 -0.00779177574441 60.259803772 -1.51837360859 1.32387137413
0.999834120274 0.015600848943 -0.00549242412671 -0.00767698464915 60.5561408997 -1.52573263645 1.32751488686
0.999832510948 0.0157220028341 -0.00553917651996 -0.00760105112568 60.8508872986 -1.53281831741 1.33298647404
0.999835669994 0.0155435539782 -0.00553071219474 -0.00756363850087 61.1373901367 -1.54175841808 1.33129668236
0.999842107296 0.0151089858264 -0.00564086530358 -0.00750257074833 61.4164276123 -1.54469645023 1.34222590923
0.999850392342 0.0145778330043 -0.00570402853191 -0.00740590924397 61.6937408447 -1.54100108147 1.34056735039
0.999855697155 0.0142234032974 -0.00582362618297 -0.00728618679568 61.9837303162 -1.53924107552 1.35421490669
0.999856710434 0.0141897471622 -0.00591841293499 -0.00713397795334 62.2682762146 -1.54028594494 1.36133480072
0.999858796597 0.0140905864537 -0.00594492023811 -0.0070143500343 62.5511703491 -1.54534041882 1.35802876949
0.999859511852 0.0140895526856 -0.00601198896766 -0.00685781612992 62.8281402588 -1.54902005196 1.36663198471
0.999857246876 0.0142546687275 -0.00607693241909 -0.0067897499539 63.1381568909 -1.5552393198 1.37430715561
0.999856293201 0.0143270352855 -0.00611990643665 -0.00673246756196 63.4378395081 -1.56283009052 1.37741458416
0.999857008457 0.0143155334517 -0.00620473921299 -0.00657675182447 63.7294540405 -1.56391096115 1.38293337822
0.999857246876 0.0143116377294 -0.00630290294066 -0.00645634904504 64.0248947144 -1.56574618816 1.38854968548
0.999858438969 0.014276497066 -0.00636251689866 -0.00628590164706 64.303604126 -1.56521356106 1.39348590374
0.999859988689 0.0141717866063 -0.0064304927364 -0.00620051240548 64.6065673828 -1.5692691803 1.39914190769
0.999863564968 0.013951331377 -0.00644694035873 -0.00611013825983 64.8889694214 -1.57467985153 1.39796280861
0.999866068363 0.0137318084016 -0.00657202024013 -0.00606447830796 65.1832199097 -1.57907009125 1.40817129612
0.999866962433 0.013731260784 -0.00654840841889 -0.00594581011683 65.4786071777 -1.5792016983 1.40850996971
0.999869167805 0.0136194042861 -0.00661329878494 -0.00575255230069 65.7647171021 -1.57807958126 1.40827059746
0.999872088432 0.01349626109 -0.00663418183103 -0.00550778023899 66.0480270386 -1.57689726353 1.40846002102
0.999872207642 0.0135274166241 -0.00673785945401 -0.00527462968603 66.3356246948 -1.57835578918 1.41555774212
0.999870240688 0.0137232718989 -0.00676295207813 -0.00511803431436 66.6167068481 -1.58224642277 1.41640889645
0.999867618084 0.0139559619129 -0.00680536450818 -0.00493356306106 66.8992462158 -1.58450841904 1.42429459095
0.999867856503 0.0140250390396 -0.00672916974872 -0.00479263067245 67.1810455322 -1.58568370342 1.41707420349
0.999872267246 0.0137743242085 -0.00679699750617 -0.00449148844928 67.4615936279 -1.57518947124 1.42271220684
0.999872326851 0.013800968416 -0.00686590373516 -0.00429031485692 67.7353286743 -1.5752863884 1.43387174606
0.999875247478 0.0136010972783 -0.00698982039467 -0.00405217893422 68.0017929077 -1.57150840759 1.43215715885
0.999874293804 0.0137088047341 -0.00701688462868 -0.00386559194885 68.2762985229 -1.57462751865 1.43861794472
0.999873757362 0.0138344662264 -0.00698658917099 -0.00360260275193 68.5470657349 -1.57317507267 1.44714391232
0.999873995781 0.0138307595626 -0.00703046377748 -0.00345942145213 68.8101654053 -1.57622015476 1.44492089748
0.999874353409 0.0138318166137 -0.00710284849629 -0.00319944391958 69.0880050659 -1.57356369495 1.45808041096
0.999872505665 0.0140138911083 -0.00712633831427 -0.00291518564336 69.3503265381 -1.56702911854 1.46195864677
0.999869227409 0.0142906801775 -0.00714987143874 -0.00261689955369 69.6275863647 -1.56110048294 1.46667051315
0.999867379665 0.0144764790311 -0.00712684867904 -0.00237569073215 69.8918457031 -1.56373608112 1.47062885761
0.999864637852 0.0146818151698 -0.00718867592514 -0.00205798074603 70.1609268188 -1.55923426151 1.47570347786
0.999864697456 0.0146794999018 -0.00723880017176 -0.00184718810488 70.4213027954 -1.55924415588 1.48463726044
0.99986332655 0.0147650325671 -0.00729295238853 -0.00168502237648 70.6864242554 -1.5567984581 1.49235010147
0.999864339828 0.0146989328787 -0.00733410287648 -0.00147761986591 70.953956604 -1.55454790592 1.50025296211
0.999864578247 0.0146678639576 -0.00738631049171 -0.00132122065406 71.2147445679 -1.55403900146 1.51025128365
0.999865889549 0.0145929744467 -0.007401867304 -0.00108050811104 71.4699630737 -1.54668831825 1.51352524757
0.99986988306 0.014335937798 -0.00740059139207 -0.000814234255813 71.7316818237 -1.54123747349 1.52436208725
0.999867677689 0.0144619252533 -0.00746688526124 -0.000597352627665 71.9853363037 -1.53551912308 1.53219115734
0.999866604805 0.014577860944 -0.00739112962037 -0.000505504605826 72.2447052002 -1.53975260258 1.53140091896
0.999861776829 0.0149018988013 -0.00741428462788 -0.000189955462702 72.4929275513 -1.53385031223 1.54545152187
0.999858319759 0.0151632102206 -0.0073556737043 -6.111960829e-05 72.7502365112 -1.53485679626 1.54529988766
0.99986076355 0.0150329479948 -0.00729052163661 8.55016987771e-05 73.0069732666 -1.53120827675 1.55457079411
0.99985820055 0.015186204575 -0.00732179451734 0.000229322278756 73.2621231079 -1.53021895885 1.56691932678
0.999858617783 0.0151236969978 -0.00738754635677 0.000402533478336 73.5095901489 -1.52918422222 1.57086265087
0.999857246876 0.0152152469382 -0.00736842583865 0.000588703260291 73.7607879639 -1.53651571274 1.58439707756
0.999854326248 0.0154024967924 -0.00737864291295 0.000631935254205 74.0139389038 -1.54377424717 1.58872306347
0.999857962132 0.0151549298316 -0.00738110905513 0.000751666957512 74.2581329346 -1.54439926147 1.59600043297
0.999857187271 0.0151877691969 -0.00740528898314 0.00089575065067 74.4992294312 -1.53951776028 1.61025989056
0.999861299992 0.0149011835456 -0.00741606391966 0.00102907640394 74.7331008911 -1.53280639648 1.61441385746
0.999860405922 0.0149332713336 -0.00742147304118 0.00132003636099 74.9644775391 -1.51862168312 1.62539219856
0.999859273434 0.0149781461805 -0.00743623543531 0.0015855897218 75.1952285767 -1.51080298424 1.63569796085
0.999858260155 0.0150730693713 -0.00735683692619 0.00169989897404 75.4272613525 -1.51102280617 1.6379121542
0.999855518341 0.0152092454955 -0.00739217316732 0.00192115036771 75.6726455688 -1.50539660454 1.65206062794
0.999852716923 0.0153752835467 -0.00740017509088 0.00203512329608 75.8907470703 -1.50342404842 1.65733611584
0.999853491783 0.0152812823653 -0.00744600268081 0.00219959951937 76.1320343018 -1.50313937664 1.66619944572
0.999849736691 0.0155157484114 -0.00741203688085 0.00236825481988 76.3600311279 -1.50100517273 1.67301905155
0.999849140644 0.0155109604821 -0.00745014473796 0.00252645672299 76.589630127 -1.49766278267 1.67816984653
0.999851405621 0.0153062585741 -0.00749243842438 0.00275797909126 76.8240356445 -1.49011790752 1.68964755535
0.999847471714 0.0155204953626 -0.00750915892422 0.00293128355406 77.0571670532 -1.48678898811 1.70126473904
0.999855220318 0.0149498200044 -0.00756459403783 0.00309711694717 77.2774124146 -1.47306966782 1.71274650097
0.999861359596 0.0145370718092 -0.00755134783685 0.0031180116348 77.493522644 -1.46573293209 1.72037696838
0.999862074852 0.0144241657108 -0.00762709928676 0.00321992742829 77.7193069458 -1.45743978024 1.72852623463
0.999865829945 0.0141215743497 -0.00766294123605 0.00331610115245 77.9442672729 -1.45947861671 1.73557651043
0.999857902527 0.0146486675367 -0.00761253898963 0.00353447138332 78.1684646606 -1.45767319202 1.74558830261
0.999858736992 0.0145287355408 -0.00766445184126 0.00366364326328 78.3834457397 -1.45263004303 1.75478982925
0.999864399433 0.0141317164525 -0.00770068960264 0.00359187996946 78.5907516479 -1.44562602043 1.76471412182
0.999869942665 0.0137383919209 -0.00775560829788 0.00345658278093 78.8138198853 -1.44560515881 1.77870452404
0.999869287014 0.0137667702511 -0.00772850960493 0.00359918340109 79.0386047363 -1.44083559513 1.78393387794
0.99986577034 0.013942652382 -0.00766738271341 0.00400304235518 79.2595825195 -1.4325606823 1.78829145432
0.999858617783 0.0143967894837 -0.00765063520521 0.00421360880136 79.4785003662 -1.4441794157 1.7945690155
0.999853789806 0.0147249847651 -0.00763335218653 0.00425639515743 79.6993026733 -1.4488247633 1.79999792576
0.999851167202 0.0149507410824 -0.00756711279973 0.00420592073351 79.9067764282 -1.44803345203 1.81135427952
0.999851107597 0.0149714490399 -0.0075004035607 0.00426688883454 80.1204452515 -1.43726074696 1.81474018097
0.99985396862 0.0147196156904 -0.00754606537521 0.00439238082618 80.3328018188 -1.42645740509 1.82681083679
0.999851107597 0.0149203082547 -0.00749611482024 0.00444739777595 80.5505905151 -1.42253375053 1.83759486675
0.999848842621 0.0150495618582 -0.00750206504017 0.00450608879328 80.7469024658 -1.41647791862 1.84175598621
0.99985396862 0.0147476205602 -0.00754687841982 0.00429025013 80.9615859985 -1.41641569138 1.85636353493
0.999852240086 0.0149974478409 -0.00750850653276 0.00387117476203 81.1862945557 -1.42324793339 1.86369931698
0.999854207039 0.0149589115754 -0.00753669673577 0.00343189272098 81.3891143799 -1.42893469334 1.86964225769
0.999858856201 0.0148055283353 -0.00743671692908 0.00292725581676 81.6084823608 -1.4337348938 1.87915039062
0.999858140945 0.0149528374895 -0.00741192977875 0.00246294867247 81.8202056885 -1.44041800499 1.88628828526
0.999854981899 0.0152632296085 -0.00736976414919 0.00189818895888 82.0293121338 -1.45870149136 1.88744056225
0.99985653162 0.0152342868969 -0.00731664011255 0.00145703391172 82.2411727905 -1.4647974968 1.8940205574
0.999855697155 0.0153398057446 -0.00729965372011 0.000905662833247 82.4519348145 -1.47525548935 1.90174996853
0.99985653162 0.0153248077258 -0.00726519199088 0.000183881187695 82.6579437256 -1.48904311657 1.90569591522
0.99985396862 0.0154948802665 -0.00724430149421 -0.000465908349724 82.8666992188 -1.49927353859 1.90663301945
0.999851882458 0.0155973564833 -0.00721805961803 -0.00126153498422 83.0726013184 -1.51751315594 1.90958464146
0.999848127365 0.0157497748733 -0.00721470685676 -0.002086477587 83.2779846191 -1.53875946999 1.91952812672
0.999842107296 0.015974227339 -0.00720561295748 -0.0030628319364 83.477355957 -1.5592468977 1.92017424107
0.999839484692 0.0159389264882 -0.00715907290578 -0.00406257202849 83.6752624512 -1.57395839691 1.9251884222
0.999837696552 0.0157714150846 -0.00715114409104 -0.00504465727136 83.8739089966 -1.58653128147 1.93297898769
0.999834299088 0.0156459119171 -0.00715998094529 -0.00600351300091 84.0748977661 -1.60098803043 1.92824351788
0.999832630157 0.0154089173302 -0.00708733638749 -0.00691362097859 84.272277832 -1.61423718929 1.9264074564
0.999827563763 0.0152049576864 -0.00711560947821 -0.0079920142889 84.4762191772 -1.63934779167 1.93361413479
0.999814331532 0.0153496069834 -0.00709787197411 -0.00928236451 84.6744308472 -1.66833102703 1.93199265003
0.999803066254 0.0153091894463 -0.0070264339447 -0.0105325160548 84.8675918579 -1.68969714642 1.93040144444
0.999786138535 0.0154241779819 -0.00702615035698 -0.0118840374053 85.0616836548 -1.71363174915 1.93765950203
0.999764323235 0.0155638316646 -0.00706009287387 -0.0134203294292 85.2445068359 -1.74801337719 1.93701779842
0.9997407794 0.0156227974221 -0.00701284501702 -0.0150316432118 85.4288330078 -1.7870439291 1.93878495693
0.999714910984 0.0156284179538 -0.0069524939172 -0.0166840869933 85.6109313965 -1.81967186928 1.93787646294
0.999682486057 0.0156539883465 -0.00689231371507 -0.0185258425772 85.8013916016 -1.8611562252 1.93653666973
0.999646961689 0.0156428851187 -0.00687078107148 -0.0203668382019 85.9891357422 -1.90189003944 1.93752539158
0.999605178833 0.0154084451497 -0.00677205203101 -0.0225165002048 86.1562271118 -1.951826334 1.92868518829
0.999551355839 0.0153227923438 -0.00666827522218 -0.0248735956848 86.3443145752 -2.0053217411 1.93080770969
0.999493122101 0.015371565707 -0.0066170389764 -0.0270990096033 86.5318374634 -2.0558578968 1.92955887318
0.999431431293 0.0151965189725 -0.00654108356684 -0.0293939486146 86.7161483765 -2.10727262497 1.92135083675
0.99936401844 0.0150969289243 -0.00649664737284 -0.0316584035754 86.9150390625 -2.15145087242 1.923402071
0.999283909798 0.0150687899441 -0.00650188140571 -0.0341048575938 87.1019744873 -2.20774674416 1.92173302174
0.999196827412 0.0148348025978 -0.00624312926084 -0.0367081873119 87.2771606445 -2.26382422447 1.90703845024
0.999107241631 0.0142674362287 -0.00618528900668 -0.0392907448113 87.4567184448 -2.31084561348 1.91394066811
0.99899661541 0.0142342485487 -0.00616697268561 -0.0420243144035 87.6488342285 -2.37571334839 1.91356420517
0.998885929585 0.0139806754887 -0.00613629398867 -0.0446617379785 87.8323669434 -2.43643832207 1.90912866592
0.998763680458 0.0137063944712 -0.00603513186797 -0.0474094711244 88.0174789429 -2.49426174164 1.91059041023
0.998620927334 0.0131409047171 -0.00596982333809 -0.0504852160811 88.189666748 -2.55816340446 1.90758705139
0.998467862606 0.0129646854475 -0.00595071865246 -0.0534716509283 88.3753509521 -2.6188762188 1.91163408756
0.998303115368 0.0129460003227 -0.00605062255636 -0.0564574822783 88.5551071167 -2.69009447098 1.90976548195
0.998123824596 0.0129770422354 -0.00615214789286 -0.05952559039 88.7255630493 -2.76562976837 1.90150415897
0.997934401035 0.0136386184022 -0.00613138778135 -0.0624832324684 88.9020080566 -2.84633827209 1.9029583931
0.997729897499 0.0145937250927 -0.00618371693417 -0.0654574036598 89.0645828247 -2.93155288696 1.90310013294
0.997540771961 0.0146385254338 -0.00612960988656 -0.0682742521167 89.2104644775 -3.00053787231 1.89734196663
0.997337579727 0.0135748833418 -0.00625373981893 -0.0713800489902 89.3761444092 -3.07250571251 1.8998414278
0.99710059166 0.0128720402718 -0.00624017976224 -0.0747430920601 89.5349502563 -3.13709020615 1.90709233284
0.996839463711 0.0128130773082 -0.0061540659517 -0.0781649798155 89.7062530518 -3.21759414673 1.90760493279
0.996566176414 0.0135931931436 -0.00629023276269 -0.0814388170838 89.8503189087 -3.3146147728 1.90514791012
0.9962926507 0.0144982226193 -0.00630630971864 -0.0845680385828 90.0024032593 -3.41219353676 1.90170395374
0.99598544836 0.0152565836906 -0.00628387276083 -0.0879856050014 90.1738052368 -3.51207304001 1.90351390839
0.995666742325 0.0154545204714 -0.00636091269553 -0.0914831012487 90.3287506104 -3.60552430153 1.90526616573
0.995355665684 0.0144890015945 -0.00627779681236 -0.0949662253261 90.492477417 -3.687530756 1.90255570412
0.995039105415 0.0139259323478 -0.00616358872503 -0.0983159691095 90.6624069214 -3.76408362389 1.90459477901
0.994721531868 0.0138592422009 -0.00615859637037 -0.101488254964 90.8138122559 -3.84442925453 1.90507519245
0.994388461113 0.0139126274735 -0.0060785766691 -0.104698836803 90.9559936523 -3.93549895287 1.89992368221
0.994029819965 0.0143676446751 -0.00606042286381 -0.107992470264 91.0764541626 -4.03465747833 1.89748060703
0.993658900261 0.0148995555937 -0.00599712366238 -0.111286982894 91.2073135376 -4.12997055054 1.8929874897
0.993290901184 0.0152375856414 -0.00592399947345 -0.114484652877 91.3361129761 -4.22457313538 1.89407706261
0.992915272713 0.0150738339871 -0.00585440779105 -0.117722161114 91.468170166 -4.31287193298 1.89034307003
0.992531359196 0.0144383730367 -0.00569281354547 -0.121001832187 91.5950012207 -4.39417171478 1.88772332668
0.99212962389 0.0141629809514 -0.00562494713813 -0.124287649989 91.728729248 -4.47836971283 1.88766622543
0.991715550423 0.0142835630104 -0.00556918652728 -0.127538278699 91.8492736816 -4.57580375671 1.87926280499
0.991301000118 0.0144584430382 -0.00559475272894 -0.130700960755 91.9795303345 -4.67362117767 1.87730050087
0.990860462189 0.0146049112082 -0.00558540411294 -0.133984342217 92.106300354 -4.77426338196 1.87802231312
0.99038118124 0.014477503486 -0.00544083444402 -0.137501716614 92.2476119995 -4.87459611893 1.87311887741
0.989892244339 0.0142369242385 -0.00527721224353 -0.141009390354 92.3737869263 -4.97217941284 1.87674701214
0.98939204216 0.013808873482 -0.00516301207244 -0.144522920251 92.5066299438 -5.06462430954 1.8708306551
0.988883018494 0.0131839755923 -0.00484992610291 -0.148033410311 92.641708374 -5.15948343277 1.86028134823
0.988358557224 0.012925603427 -0.00457310723141 -0.151526317 92.7587280273 -5.25536298752 1.86004900932
0.987806618214 0.0131744425744 -0.00457193795592 -0.155062660575 92.8914871216 -5.36236619949 1.8551388979
0.987224638462 0.0133637515828 -0.00460930680856 -0.158708706498 93.0168762207 -5.4720916748 1.85552787781
0.986589074135 0.0137445759028 -0.00465259421617 -0.162579804659 93.1157302856 -5.59701728821 1.85373067856
0.985951602459 0.0137350773439 -0.00449341721833 -0.16640727222 93.2273178101 -5.71241188049 1.84528517723
0.985300600529 0.0136645566672 -0.00434988969937 -0.17022870481 93.3464736938 -5.82428312302 1.85008132458
0.98462074995 0.0138547504321 -0.00421241112053 -0.174106582999 93.4522094727 -5.94133138657 1.8445687294
0.98394459486 0.0137007720768 -0.00410095602274 -0.177902534604 93.5516891479 -6.04069900513 1.84032320976
0.983242571354 0.0133412219584 -0.0039342707023 -0.181772962213 93.6568374634 -6.14984083176 1.844378829
0.982538700104 0.0130615206435 -0.00372616830282 -0.185563966632 93.7714614868 -6.25728940964 1.84213876724
0.981795966625 0.0126357004046 -0.00348438485526 -0.18948790431 93.88671875 -6.36481618881 1.83459115028
0.981016039848 0.0120813278481 -0.00331046874635 -0.193523690104 93.999671936 -6.47478914261 1.83274161816
0.980218827724 0.0118572935462 -0.00314685027115 -0.197538226843 94.1142120361 -6.59037065506 1.83036673069
0.979456663132 0.0120283663273 -0.00307065690868 -0.20127415657 94.2160949707 -6.71208000183 1.83567857742
0.978697657585 0.0124209504575 -0.00313406437635 -0.204908594489 94.3132705688 -6.83505392075 1.84751820564
0.977873146534 0.0125018004328 -0.00308204069734 -0.20880407095 94.3992843628 -6.95950508118 1.85015261173
0.97698777914 0.0122847156599 -0.00307132699527 -0.21292090416 94.5067062378 -7.07856798172 1.85305774212
0.976062178612 0.0118872364983 -0.00296733248979 -0.217148214579 94.6129684448 -7.19646263123 1.85480189323
0.975153148174 0.0118987085298 -0.00290479022078 -0.221194922924 94.719543457 -7.31489038467 1.85706377029
0.974205434322 0.0117537174374 -0.00283565581776 -0.225340649486 94.8159561157 -7.44138288498 1.85610568523
0.973239064217 0.01113016624 -0.00276210112497 -0.229510575533 94.9195022583 -7.56644153595 1.85382986069
0.972242951393 0.0110091893002 -0.00274744187482 -0.233700111508 95.0075378418 -7.69682073593 1.86325585842
0.971273601055 0.0114452075213 -0.00274675013497 -0.237675949931 95.1026000977 -7.82715606689 1.86899662018
0.970260798931 0.0117995999753 -0.00264231231995 -0.241761341691 95.1752471924 -7.96976137161 1.86749124527
0.969226241112 0.0113262748346 -0.0025404850021 -0.245899483562 95.2646865845 -8.10513496399 1.87277710438
0.96812915802 0.0108389863744 -0.00239797960967 -0.250206887722 95.341178894 -8.23845481873 1.87365972996
0.967019200325 0.00996398739517 -0.00224105711095 -0.254500180483 95.4444351196 -8.36828517914 1.87238395214
0.965918779373 0.00920195598155 -0.00222589983605 -0.258673608303 95.5158462524 -8.49680995941 1.87387800217
0.964803874493 0.00879212003201 -0.00208357046358 -0.262816697359 95.5898513794 -8.63226890564 1.86468040943
0.963672757149 0.00868446473032 -0.00205644639209 -0.266938060522 95.6657714844 -8.76929187775 1.86213922501
0.96244263649 0.00812271703035 -0.00198511686176 -0.271357804537 95.759475708 -8.91578769684 1.86361145973
0.961120665073 0.00765171507373 -0.00178417749703 -0.276018500328 95.8649673462 -9.05830574036 1.85763728619
0.959737420082 0.00716322846711 -0.00163190159947 -0.280804038048 95.9473953247 -9.20463466644 1.85400593281
0.958367288113 0.00670928321779 -0.00147930893581 -0.28545704484 96.0295181274 -9.35151767731 1.8484762907
0.957022070885 0.00637841084972 -0.00130705954507 -0.289943397045 96.098739624 -9.49540996552 1.84034633636
0.95567125082 0.00599672272801 -0.00119578745216 -0.294373631477 96.184715271 -9.63901042938 1.83530724049
0.95427519083 0.0058093178086 -0.00102579884697 -0.298872679472 96.2538223267 -9.79233360291 1.82985079288
0.952780365944 0.00634689955041 -0.00105476588942 -0.303593337536 96.3215560913 -9.95073604584 1.82712936401
0.951220273972 0.00695420941338 -0.00119113910478 -0.308433234692 96.368637085 -10.1146841049 1.82174754143
0.949573457241 0.00732651306316 -0.00117457506713 -0.313458055258 96.4234313965 -10.2846984863 1.82144522667
0.947922229767 0.00728088291362 -0.0011036505457 -0.318417876959 96.481880188 -10.4486961365 1.82651901245
0.946264147758 0.0068754083477 -0.00103663490154 -0.323321253061 96.5429840088 -10.6091747284 1.82339394093
0.944579482079 0.00673244008794 -0.00103079993278 -0.328213304281 96.5899581909 -10.7746782303 1.81970071793
0.942871212959 0.0065125185065 -0.000948813918512 -0.333093553782 96.6469802856 -10.9342098236 1.81373798847
0.941061496735 0.00628465553746 -0.000862121698447 -0.33817705512 96.7002716064 -11.0989522934 1.8076659441
0.939198970795 0.00631516100839 -0.000741983822081 -0.343315511942 96.7658691406 -11.2643136978 1.80684745312
0.937397778034 0.0062100966461 -0.000664408900775 -0.348205685616 96.8238983154 -11.4288377762 1.80583465099
0.93566608429 0.00663079321384 -0.000573781610001 -0.352824926376 96.8640060425 -11.5960569382 1.79317069054
0.933929383755 0.00710979895666 -0.000512251455802 -0.357387512922 96.9190444946 -11.7653532028 1.78195381165
0.932104945183 0.007134151645 -0.000457739224657 -0.362118840218 96.9520797729 -11.936876297 1.78014063835
0.930177152157 0.00747382733971 -0.000416358961957 -0.36703568697 96.9787139893 -12.1114721298 1.7810074091
0.928227126598 0.00801239814609 -0.000310563715175 -0.371928542852 97.005355835 -12.2853364944 1.76856744289
0.926275551319 0.00861819647253 -0.000164486758877 -0.376749306917 97.0386428833 -12.4562482834 1.75012409687
0.924297988415 0.00902967527509 -0.000106195613625 -0.381565839052 97.0630111694 -12.6275224686 1.74372327328
0.922266900539 0.00834267772734 -0.000174838525709 -0.386464565992 97.1171722412 -12.7985134125 1.75096571445
0.920167326927 0.00762581499293 -0.000124836398754 -0.391452044249 97.1519165039 -12.9647665024 1.76172208786
0.918095529079 0.00723695475608 -8.01832939032e-05 -0.396294057369 97.1963424683 -13.1253614426 1.76543307304
0.916117429733 0.00706329802051 3.50719747075e-05 -0.400848776102 97.2248001099 -13.2879505157 1.75872910023
0.914160549641 0.00768083892763 0.000135631358717 -0.405280411243 97.2299804688 -13.460644722 1.75160491467
0.912152528763 0.00848120544106 0.000267664523562 -0.409764051437 97.239944458 -13.6391010284 1.73789310455
0.910051286221 0.00862113852054 0.000318184029311 -0.414406895638 97.2599868774 -13.8138999939 1.73825335503
0.907920658588 0.00840335153043 0.000338430691045 -0.419058561325 97.2896499634 -13.9829969406 1.74391114712
0.905876994133 0.00795559771359 0.000337952631526 -0.42346689105 97.3155212402 -14.1467313766 1.74349701405
0.903849303722 0.00800655037165 0.000406875886256 -0.427776783705 97.3309860229 -14.3126173019 1.73815608025
0.901698410511 0.00796203780919 0.000479060137877 -0.432292878628 97.3516082764 -14.4767885208 1.74272239208
0.899377882481 0.00753845600411 0.000530969060492 -0.437107682228 97.3682479858 -14.6430330276 1.75154924393
0.89701706171 0.00698544178158 0.000522770395037 -0.441941291094 97.399887085 -14.8088378906 1.75390088558
0.894786775112 0.00648360140622 0.000511038408149 -0.446447253227 97.4254455566 -14.975066185 1.75581943989
0.892711937428 0.00612579844892 0.000557277002372 -0.450586646795 97.4460906982 -15.1370849609 1.75723004341
0.89057636261 0.00581246009097 0.00050290802028 -0.454797238111 97.478805542 -15.3027143478 1.76776659489
0.88828265667 0.00530282547697 0.000569110852666 -0.459267109632 97.4903488159 -15.4691524506 1.77577960491
0.88597035408 0.00487676169723 0.000683330232278 -0.463716596365 97.5057830811 -15.6327733994 1.77603828907
0.88374119997 0.0052108685486 0.000826722651254 -0.46794706583 97.5195617676 -15.7998714447 1.7660497427
0.881579458714 0.00577911362052 0.000863536959514 -0.472000330687 97.5340652466 -15.9709129333 1.76316416264
0.879411697388 0.00631758710369 0.000783999217674 -0.476020276546 97.5284347534 -16.1418933868 1.76191318035
0.877124786377 0.00653563672677 0.000769458070863 -0.480218291283 97.5343093872 -16.3141365051 1.76133584976
0.874711215496 0.00657034898177 0.000769985606894 -0.48460021615 97.5372314453 -16.4879550934 1.7628660202
0.872271001339 0.00702334567904 0.000973287853412 -0.488972216845 97.5252456665 -16.6607971191 1.75082957745
0.869888365269 0.00715981097892 0.00100527249742 -0.493196517229 97.5040512085 -16.8345623016 1.74334692955
0.867564797401 0.0076162382029 0.00113170070108 -0.4972653687 97.506401062 -17.008649826 1.73240196705
0.865166246891 0.00781403016299 0.00119137880392 -0.50142365694 97.5075302124 -17.1832275391 1.73536169529
0.862659752369 0.00747203966603 0.00115942477714 -0.505728900433 97.5248413086 -17.3579502106 1.74088776112
0.860072314739 0.00746793905273 0.00125134258997 -0.510116755962 97.5108795166 -17.5361423492 1.73609137535
0.857552647591 0.00762447761372 0.00131053559016 -0.514338850975 97.4946517944 -17.7194137573 1.7346752882
0.8551004529 0.00817321334034 0.00135010352824 -0.518396914005 97.4819107056 -17.9046573639 1.72396469116
0.852614402771 0.00868509523571 0.001340198447 -0.522467434406 97.4503555298 -18.0848331451 1.719632864
0.850039839745 0.00861248839647 0.00134691526182 -0.526646912098 97.4462432861 -18.2642993927 1.71678316593
0.847371459007 0.00841171201319 0.00134008273017 -0.53093290329 97.4403915405 -18.4468269348 1.71632695198
0.844744324684 0.00827668793499 0.00141949788667 -0.535104870796 97.4376602173 -18.626581192 1.71292555332
0.842195212841 0.00789806805551 0.00144870497752 -0.539113640785 97.4254150391 -18.8057193756 1.71251368523
0.839628875256 0.00763079337776 0.0015648152912 -0.543105304241 97.4246063232 -18.9850883484 1.71609413624
0.837002396584 0.00746174622327 0.00167161819991 -0.547146439552 97.4127502441 -19.1657295227 1.71328341961
0.834337890148 0.00719371251762 0.00170828821138 -0.551204502583 97.397567749 -19.3454418182 1.71667575836
0.831658959389 0.00707507971674 0.00180118915159 -0.555239439011 97.3854904175 -19.5252990723 1.71581482887
0.829022288322 0.00713192066178 0.00186173000839 -0.559167683125 97.3559646606 -19.7057495117 1.71065425873
0.826392889023 0.00728005496785 0.00191761564929 -0.563044250011 97.3251495361 -19.8840522766 1.70073974133
0.823700368404 0.00711681414396 0.00190342240967 -0.566978156567 97.2871780396 -20.0654335022 1.70132827759
0.820956110954 0.00684320693836 0.0019932189025 -0.570947527885 97.2743835449 -20.2468795776 1.70428264141
0.818164348602 0.00613377755508 0.00229364773259 -0.574947834015 97.2650527954 -20.429227829 1.70861339569
0.81545650959 0.00581838935614 0.00243068649434 -0.578784644604 97.2589569092 -20.6138076782 1.70423579216
0.812896132469 0.00563052063808 0.00241290638223 -0.582377076149 97.2523498535 -20.7952060699 1.70286369324
0.810424745083 0.00555647350848 0.00246401736513 -0.585811853409 97.2219390869 -20.9783725739 1.70084404945
0.807961702347 0.00576534867287 0.0023619167041 -0.589202702045 97.1923141479 -21.1642894745 1.70235562325
0.805491507053 0.00592254521325 0.00230657728389 -0.592573821545 97.1536712646 -21.3464813232 1.70179080963
0.80305069685 0.00600821245462 0.00228035007603 -0.595876693726 97.1316146851 -21.5281009674 1.700974226
0.800665736198 0.00583780230954 0.00222364137881 -0.599079370499 97.1062469482 -21.7083969116 1.70365726948
0.798328518867 0.0051681464538 0.00230113230646 -0.602196216583 97.1106109619 -21.8865966797 1.71132397652
0.796002924442 0.00490271998569 0.00255604600534 -0.60526818037 97.1064300537 -22.0662784576 1.71018207073
0.793753683567 0.0045649735257 0.00252799340524 -0.608217597008 97.0861587524 -22.2471160889 1.71041476727
0.791617631912 0.0042684385553 0.00246733566746 -0.61099755764 97.0707778931 -22.4273948669 1.70867323875
0.789503157139 0.00481776986271 0.00241462234408 -0.613723397255 97.0336761475 -22.6093883514 1.70423471928
0.78734600544 0.00500058149919 0.00230749230832 -0.616487383842 96.9909057617 -22.7866897583 1.70351910591
0.785141289234 0.0049616903998 0.00221914285794 -0.619293391705 96.9612808228 -22.965631485 1.70509314537
0.78294301033 0.00480233924463 0.00232269591652 -0.622071146965 96.9362487793 -23.1441555023 1.71163630486
0.780803382397 0.00447240518406 0.00248561520129 -0.624756515026 96.9356155396 -23.3157558441 1.71041631699
0.778719186783 0.00441033346578 0.00268230563961 -0.627352058887 96.9131317139 -23.4915313721 1.71020245552
0.776812970638 0.0043629524298 0.0026416531764 -0.629711329937 96.8935623169 -23.6607589722 1.70701372623
0.774939894676 0.00433330889791 0.00259996275418 -0.632015287876 96.8687896729 -23.8222160339 1.70072603226
0.772971689701 0.00442460319027 0.00260909087956 -0.634420275688 96.8390274048 -23.9923686981 1.70773649216
0.77106654644 0.00456962315366 0.00260046916083 -0.636733472347 96.8144302368 -24.1598320007 1.70609533787
0.76926356554 0.00454443786293 0.00258194375783 -0.638910770416 96.7815246582 -24.3219070435 1.70662152767
0.767457962036 0.00456491531804 0.00265001924708 -0.641078174114 96.7532958984 -24.4816379547 1.71102392673
0.765651643276 0.00445001479238 0.0027241606731 -0.643234908581 96.7360305786 -24.6387310028 1.70913422108
0.763826608658 0.0042615570128 0.00281569291838 -0.645401954651 96.7161102295 -24.7959957123 1.71352946758
0.762051463127 0.00418116059154 0.00286058639176 -0.647497296333 96.7012023926 -24.9519500732 1.71189081669
0.760318636894 0.00410086102784 0.00282985460944 -0.649531781673 96.6830062866 -25.1054134369 1.70717597008
0.758643507957 0.00410760426894 0.00284372828901 -0.651487469673 96.6595306396 -25.2642459869 1.70983552933
0.756965637207 0.00405925372615 0.00292669981718 -0.653436183929 96.6360931396 -25.4177188873 1.7075612545
0.755298614502 0.00393328350037 0.002861676272 -0.655363380909 96.6202926636 -25.572019577 1.71057152748
0.753696084023 0.00383600010537 0.0029076312203 -0.657206177711 96.6030883789 -25.7271308899 1.71229147911
0.752094745636 0.0037132462021 0.00295950728469 -0.659038603306 96.5821762085 -25.8801937103 1.71272432804
0.750577688217 0.00372775224969 0.00300912139937 -0.660765528679 96.556678772 -26.0350284576 1.71104252338
0.74907374382 0.00368838151917 0.00298172119074 -0.662470400333 96.5384140015 -26.1900539398 1.71371293068
0.747556209564 0.00372282858007 0.00292651774362 -0.664182364941 96.5077133179 -26.3421363831 1.71280753613
0.746029257774 0.00353649328463 0.00294665037654 -0.665898025036 96.4826660156 -26.4962730408 1.71864783764
0.744523048401 0.00350472074933 0.00301679037511 -0.667581498623 96.4706726074 -26.6503257751 1.71679115295
0.74312210083 0.00354354549199 0.00304603832774 -0.669140338898 96.4431610107 -26.8030128479 1.70909225941
0.741806566715 0.00344837200828 0.00291391042992 -0.670599520206 96.4202041626 -26.9590969086 1.71764421463
0.740453779697 0.00338807608932 0.00295159337111 -0.672093093395 96.4128723145 -27.1120681763 1.71756184101
0.739092886448 0.00346596050076 0.00308668846264 -0.673588395119 96.3942718506 -27.2721557617 1.71307206154
0.737791895866 0.00346676749177 0.00327613088302 -0.675012290478 96.3865432739 -27.437494278 1.71668374538
0.736602723598 0.00345306959935 0.00336056156084 -0.676309347153 96.3766021729 -27.5979099274 1.71036624908
0.735549807549 0.00333610456437 0.00334035418928 -0.67745500803 96.3624191284 -27.7563495636 1.71013140678
0.734431564808 0.00324248592369 0.00339908292517 -0.678667366505 96.3609237671 -27.9222221375 1.71246540546
0.733263492584 0.00325524131767 0.00341394799761 -0.679929018021 96.3405761719 -28.0900630951 1.71011424065
0.73222887516 0.00326899415813 0.00337620824575 -0.681043207645 96.3240890503 -28.2586669922 1.71111404896
0.731275856495 0.00316910259426 0.00344574102201 -0.682066559792 96.3131637573 -28.4255542755 1.70940732956
0.730309069157 0.00316877057776 0.00361804035492 -0.683100759983 96.299987793 -28.5943088531 1.70696508884
0.729375720024 0.00316821807064 0.00368948071264 -0.684096813202 96.2847290039 -28.7678604126 1.70849406719
0.728578209877 0.00314812990837 0.00381261040457 -0.684945583344 96.2816314697 -28.9382266998 1.70341897011
0.727831482887 0.00315945246257 0.00382967386395 -0.685738801956 96.2626342773 -29.1101646423 1.70531523228
0.727066576481 0.00313571561128 0.00389867275953 -0.68654948473 96.2565307617 -29.2829284668 1.70278799534
0.72627723217 0.00311750895344 0.00403666403145 -0.687383770943 96.2466278076 -29.4586486816 1.70467090607
0.725575983524 0.00309644034132 0.00411852682009 -0.688123524189 96.2599411011 -29.6339492798 1.70092856884
0.724944889545 0.00303171621636 0.00407108524814 -0.688788890839 96.2525482178 -29.806438446 1.69950222969
0.724338114262 0.00314185395837 0.00410741334781 -0.68942630291 96.2346725464 -29.9815921783 1.69832766056
0.723688006401 0.00327935535461 0.00406090728939 -0.690108239651 96.2206497192 -30.1555633545 1.69924414158
0.722992539406 0.00321764545515 0.00401768973097 -0.69083738327 96.2091064453 -30.3286476135 1.7017275095
0.722252607346 0.00316850887612 0.00416180258617 -0.691610336304 96.2032318115 -30.5010528564 1.70195806026
0.72155725956 0.00309974257834 0.00436923466623 -0.692334771156 96.1926727295 -30.6744594574 1.69894075394
0.720913231373 0.00299435760826 0.00450558401644 -0.693004965782 96.18384552 -30.8442687988 1.69628465176
0.720307469368 0.00297466968186 0.00458593899384 -0.693634092808 96.1788482666 -31.0134220123 1.69700491428
0.719697058201 0.00303424615413 0.00445615733042 -0.69426804781 96.1610641479 -31.1826591492 1.69816863537
0.719124555588 0.00315837771632 0.00443688966334 -0.694860517979 96.1529998779 -31.3486366272 1.69808924198
0.718622028828 0.00325891771354 0.00440941145644 -0.695379912853 96.1579208374 -31.5151405334 1.70039081573
