0.712625622749 -0.00205151317641 0.00498259440064 -0.701522171497 -49.0155220032 69.6653747559 0.522595822811
0.712528705597 -0.00173852359876 0.0046741720289 -0.701623558998 -49.0115699768 69.7324676514 0.523503124714
0.712549269199 -0.00165028381161 0.00441745249555 -0.701604545116 -49.016872406 69.8026123047 0.523549675941
0.712635338306 -0.00159971066751 0.0043657515198 -0.70151758194 -49.0171775818 69.8664474487 0.523012280464
0.712644040585 -0.00173867645208 0.00432375678793 -0.701508581638 -49.0188980103 69.9279327393 0.520373642445
0.71271777153 -0.00180097715929 0.00437990995124 -0.701433181763 -49.0228805542 69.9880065918 0.516644239426
0.712841272354 -0.00183452456258 0.00432979594916 -0.701307833195 -49.0264854431 70.051322937 0.518959343433
0.712835431099 -0.00165413809009 0.00397796323523 -0.701316356659 -49.0272026062 70.1132965088 0.515983641148
0.712794959545 -0.00132843002211 0.00365400291048 -0.701359927654 -49.0269241333 70.1738433838 0.517840325832
0.712813556194 -0.00122701877262 0.00346572254784 -0.70134216547 -49.0323677063 70.2364425659 0.519265174866
0.712804019451 -0.00113504438195 0.00332300551236 -0.701352715492 -49.0304870605 70.303527832 0.517504632473
0.712885260582 -0.00125729909632 0.00339847849682 -0.701269567013 -49.0297470093 70.3690185547 0.516549229622
0.713038861752 -0.0014447120484 0.00356449955143 -0.701112210751 -49.0309448242 70.4378128052 0.515853524208
0.713058173656 -0.00144969462417 0.00352049106732 -0.701092839241 -49.0295677185 70.510307312 0.522636950016
0.71302318573 -0.00133279617876 0.00299060484394 -0.701131045818 -49.0275764465 70.5818862915 0.526868283749
0.712963521481 -0.00125009880867 0.00263220677152 -0.701193332672 -49.0309638977 70.6457443237 0.526949167252
0.712949454784 -0.0012866120087 0.00267994264141 -0.701207399368 -49.0308494568 70.7039718628 0.525883436203
0.713015079498 -0.001538149314 0.00284515065141 -0.701139509678 -49.0285110474 70.7705001831 0.527345061302
0.713054180145 -0.00185681693256 0.00299684982747 -0.701098322868 -49.02394104 70.8429031372 0.529007852077
0.713054478168 -0.0020499152597 0.00302282255143 -0.701097369194 -49.0218925476 70.9142913818 0.531387746334
0.712994515896 -0.00196106010117 0.00283616036177 -0.701159417629 -49.0235862732 70.975944519 0.525672912598
0.71298289299 -0.00170322577469 0.00264099333435 -0.701172709465 -49.0276298523 71.0388717651 0.529042840004
0.713056087494 -0.00163488276303 0.00239022867754 -0.701099276543 -49.0350379944 71.1048202515 0.52933216095
0.713077068329 -0.00159017671831 0.00230285595171 -0.701078295708 -49.0311355591 71.1692428589 0.53048735857
0.713048398495 -0.00173079280648 0.00236945785582 -0.701106905937 -49.0313949585 71.2252807617 0.529951870441
0.713099479675 -0.00194592564367 0.00249188556336 -0.701054036617 -49.0361671448 71.2881164551 0.528569579124
0.713149785995 -0.00225911475718 0.00263910833746 -0.701001405716 -49.0343704224 71.3436126709 0.527208864689
0.71328997612 -0.00245177419856 0.00274126580916 -0.700857698917 -49.037197113 71.4080657959 0.530168831348
0.713309645653 -0.00238073803484 0.00252742366865 -0.700838685036 -49.03855896 71.4653396606 0.529537916183
0.713216483593 -0.00233674608171 0.00234024808742 -0.700934290886 -49.0398826599 71.5252151489 0.530145466328
0.713184773922 -0.00239425245672 0.00235456856899 -0.70096629858 -49.0378990173 71.5777053833 0.525998532772
0.713207960129 -0.00258325715549 0.00255938991904 -0.700941264629 -49.0355796814 71.6315460205 0.529102385044
0.713338732719 -0.00276126526296 0.00264395610429 -0.700807273388 -49.035446167 71.6912918091 0.527375102043
0.713371753693 -0.00283950031735 0.00272859469987 -0.700773000717 -49.0356903076 71.7544250488 0.528216004372
0.713418185711 -0.00295135797933 0.00272774533369 -0.700725257397 -49.036857605 71.815284729 0.529546797276
0.713396966457 -0.00297805760056 0.00264202896506 -0.700747132301 -49.0338363647 71.8715057373 0.531184852123
0.713450729847 -0.00313415029086 0.00268961209804 -0.700691521168 -49.0326766968 71.9312057495 0.532213926315
0.713450729847 -0.00327724637464 0.00263208290562 -0.700691103935 -49.0323524475 71.9965438843 0.540523886681
0.713425040245 -0.00327295577154 0.00229289149866 -0.700718402863 -49.0313949585 72.0557556152 0.543683052063
0.713452339172 -0.00314367609099 0.00195940467529 -0.700692236423 -49.0398254395 72.1050491333 0.547426342964
0.713497042656 -0.00318964687176 0.00176173925865 -0.700647056103 -49.0447425842 72.1482849121 0.552462100983
0.713550209999 -0.00351532571949 0.00175065686926 -0.70059132576 -49.0469970703 72.1836547852 0.55625808239
0.713550209999 -0.00351532571949 0.00175065686926 -0.70059132576 -49.0469970703 72.1836547852 0.55625808239
0.713550209999 -0.00351532571949 0.00175065686926 -0.70059132576 -49.0469970703 72.1836547852 0.55625808239
0.713550209999 -0.00351532571949 0.00175065686926 -0.70059132576 -49.0469970703 72.1836547852 0.55625808239
0.713550209999 -0.00351532571949 0.00175065686926 -0.70059132576 -49.0469970703 72.1836547852 0.55625808239
0.713550209999 -0.00351532571949 0.00175065686926 -0.70059132576 -49.0469970703 72.1836547852 0.55625808239
0.713550209999 -0.00351532571949 0.00175065686926 -0.70059132576 -49.0469970703 72.1836547852 0.55625808239
0.713550209999 -0.00351532571949 0.00175065686926 -0.70059132576 -49.0469970703 72.1836547852 0.55625808239
0.713550209999 -0.00351532571949 0.00175065686926 -0.70059132576 -49.0469970703 72.1836547852 0.55625808239
0.713550209999 -0.00351532571949 0.00175065686926 -0.70059132576 -49.0469970703 72.1836547852 0.55625808239
0.713550209999 -0.00351532571949 0.00175065686926 -0.70059132576 -49.0469970703 72.1836547852 0.55625808239
0.713550209999 -0.00351532571949 0.00175065686926 -0.70059132576 -49.0469970703 72.1836547852 0.55625808239
0.713550209999 -0.00351532571949 0.00175065686926 -0.70059132576 -49.0469970703 72.1836547852 0.55625808239
0.713550209999 -0.00351532571949 0.00175065686926 -0.70059132576 -49.0469970703 72.1836547852 0.55625808239
0.713550209999 -0.00351532571949 0.00175065686926 -0.70059132576 -49.0469970703 72.1836547852 0.55625808239
0.713550209999 -0.00351532571949 0.00175065686926 -0.70059132576 -49.0469970703 72.1836547852 0.55625808239
0.713550209999 -0.00351532571949 0.00175065686926 -0.70059132576 -49.0469970703 72.1836547852 0.55625808239
0.713550209999 -0.00351532571949 0.00175065686926 -0.70059132576 -49.0469970703 72.1836547852 0.55625808239
0.713550209999 -0.00351532571949 0.00175065686926 -0.70059132576 -49.0469970703 72.1836547852 0.55625808239
0.713550209999 -0.00351532571949 0.00175065686926 -0.70059132576 -49.0469970703 72.1836547852 0.55625808239
0.713550209999 -0.00351532571949 0.00175065686926 -0.70059132576 -49.0469970703 72.1836547852 0.55625808239
0.713550209999 -0.00351532571949 0.00175065686926 -0.70059132576 -49.0469970703 72.1836547852 0.55625808239
0.713550209999 -0.00351532571949 0.00175065686926 -0.70059132576 -49.0469970703 72.1836547852 0.55625808239
0.713550209999 -0.00351532571949 0.00175065686926 -0.70059132576 -49.0469970703 72.1836547852 0.55625808239
0.713550209999 -0.00351532571949 0.00175065686926 -0.70059132576 -49.0469970703 72.1836547852 0.55625808239
0.713550209999 -0.00351532571949 0.00175065686926 -0.70059132576 -49.0469970703 72.1836547852 0.55625808239
0.713550209999 -0.00351532571949 0.00175065686926 -0.70059132576 -49.0469970703 72.1836547852 0.55625808239
0.713550209999 -0.00351532571949 0.00175065686926 -0.70059132576 -49.0469970703 72.1836547852 0.55625808239
0.713550209999 -0.00351532571949 0.00175065686926 -0.70059132576 -49.0469970703 72.1836547852 0.55625808239
0.713550209999 -0.00351532571949 0.00175065686926 -0.70059132576 -49.0469970703 72.1836547852 0.55625808239
0.713550209999 -0.00351532571949 0.00175065686926 -0.70059132576 -49.0469970703 72.1836547852 0.55625808239
0.713550209999 -0.00351532571949 0.00175065686926 -0.70059132576 -49.0469970703 72.1836547852 0.55625808239
0.713550209999 -0.00351532571949 0.00175065686926 -0.70059132576 -49.0469970703 72.1836547852 0.55625808239
0.713550209999 -0.00351532571949 0.00175065686926 -0.70059132576 -49.0469970703 72.1836547852 0.55625808239
0.713550209999 -0.00351532571949 0.00175065686926 -0.70059132576 -49.0469970703 72.1836547852 0.55625808239
0.713550209999 -0.00351532571949 0.00175065686926 -0.70059132576 -49.0469970703 72.1836547852 0.55625808239
0.713550209999 -0.00351532571949 0.00175065686926 -0.70059132576 -49.0469970703 72.1836547852 0.55625808239
0.713550209999 -0.00351532571949 0.00175065686926 -0.70059132576 -49.0469970703 72.1836547852 0.55625808239
0.713550209999 -0.00351532571949 0.00175065686926 -0.70059132576 -49.0469970703 72.1836547852 0.55625808239
0.713550209999 -0.00351532571949 0.00175065686926 -0.70059132576 -49.0469970703 72.1836547852 0.55625808239
0.713550209999 -0.00351532571949 0.00175065686926 -0.70059132576 -49.0469970703 72.1836547852 0.55625808239
0.713550209999 -0.00351532571949 0.00175065686926 -0.70059132576 -49.0469970703 72.1836547852 0.55625808239
0.713550209999 -0.00351532571949 0.00175065686926 -0.70059132576 -49.0469970703 72.1836547852 0.55625808239
0.713550209999 -0.00351532571949 0.00175065686926 -0.70059132576 -49.0469970703 72.1836547852 0.55625808239
0.713550209999 -0.00351532571949 0.00175065686926 -0.70059132576 -49.0469970703 72.1836547852 0.55625808239
0.713550209999 -0.00351532571949 0.00175065686926 -0.70059132576 -49.0469970703 72.1836547852 0.55625808239
0.713550209999 -0.00351532571949 0.00175065686926 -0.70059132576 -49.0469970703 72.1836547852 0.55625808239
0.713550209999 -0.00351532571949 0.00175065686926 -0.70059132576 -49.0469970703 72.1836547852 0.55625808239
0.713550209999 -0.00351532571949 0.00175065686926 -0.70059132576 -49.0469970703 72.1836547852 0.55625808239
0.713540554047 -0.00359767000191 0.00166615168564 -0.700600981712 -49.0463981628 72.1523284912 0.553782045841
0.713474929333 -0.00357620045543 0.00171953509562 -0.700667798519 -49.0421867371 72.1198348999 0.552117168903
0.713486909866 -0.00340380799025 0.00168251653668 -0.700656592846 -49.0419120789 72.0745391846 0.556759119034
0.713415265083 -0.00331712141633 0.00144047662616 -0.700730383396 -49.0409126282 72.0218582153 0.558638870716
0.71331769228 -0.00327101838775 0.00130355264992 -0.700830280781 -49.0397911072 71.9576644897 0.554641485214
0.713324546814 -0.00312781496905 0.00145836081356 -0.700823664665 -49.0440216064 71.8784561157 0.553685963154
0.713345229626 -0.00332632125355 0.00150025705807 -0.700801610947 -49.0467796326 71.7910995483 0.555271267891
0.713318228722 -0.0033869817853 0.00173890357837 -0.700828194618 -49.037902832 71.6914367676 0.549928724766
0.713262975216 -0.00313301896676 0.00172626855783 -0.700885653496 -49.0378799438 71.5729293823 0.552827715874
0.713139474392 -0.00271998206154 0.00143383815885 -0.701013743877 -49.0406532288 71.4519729614 0.555260181427
0.7129316926 -0.00253157014959 0.00125343236141 -0.701226115227 -49.0384864807 71.3124084473 0.547471404076
0.712980747223 -0.00232564937323 0.0016130306758 -0.701176166534 -49.0416870117 71.1750564575 0.529047846794
0.712964117527 -0.00208364264108 0.00249311397783 -0.70119124651 -49.0327720642 71.0219345093 0.526808083057
0.71303075552 -0.00212370138615 0.0027690033894 -0.70112234354 -49.0342712402 70.878288269 0.529630303383
0.712805390358 -0.00160792679526 0.00256367959082 -0.701353669167 -49.0242424011 70.7346420288 0.523329913616
0.712578415871 -0.00134704343509 0.00254837772809 -0.701584815979 -49.0229949951 70.6053695679 0.524286329746
0.712511122227 -0.00142399710603 0.00275085843168 -0.701652228832 -49.0131950378 70.4625473022 0.519395947456
0.712496995926 -0.00131235341541 0.00286772358231 -0.701666355133 -49.0082359314 70.32472229 0.524499595165
0.712370336056 -0.00134763913229 0.00274878088385 -0.701795339584 -49.00415802 70.1803283691 0.517901480198
0.712180018425 -0.00122837210074 0.00309251737781 -0.701987326145 -49.0006103516 70.03565979 0.516518652439
0.711771607399 -0.00133940367959 0.00332006043755 -0.702400147915 -48.9857444763 69.882522583 0.524416446686
0.71164047718 -0.00162342307158 0.00331267435104 -0.702532470226 -48.9860038757 69.7416915894 0.525461733341
0.711654067039 -0.00208808691241 0.00395443802699 -0.702514111996 -48.9862365723 69.5921173096 0.523384392262
0.711631834507 -0.00267057702877 0.00455431267619 -0.70253098011 -48.9761276245 69.4377975464 0.518760204315
0.711520254612 -0.00232286122628 0.00486307730898 -0.702643215656 -48.9648399353 69.2734603882 0.522964179516
0.71129655838 -0.00230794632807 0.00441516237333 -0.702872633934 -48.9622764587 69.114074707 0.524977505207
0.711125791073 -0.0019939346239 0.00440496858209 -0.703046381474 -48.9595336914 68.9425735474 0.511778473854
0.7110055089 -0.00154557672795 0.00450441800058 -0.703168570995 -48.9584236145 68.7674636841 0.516510426998
0.710898697376 -0.00148964952677 0.00446039251983 -0.70327693224 -48.961856842 68.5890960693 0.524252653122
0.710688054562 -0.00182818761095 0.00460030883551 -0.703488051891 -48.9614105225 68.4182662964 0.522786259651
0.71045678854 -0.00237136054784 0.00543826073408 -0.7037140131 -48.9560585022 68.2342681885 0.531579494476
0.710319936275 -0.0035249418579 0.00618378724903 -0.703841149807 -48.9457321167 68.0480499268 0.53659170866
0.710497319698 -0.00424493150786 0.00671839434654 -0.703653216362 -48.94140625 67.8668441772 0.520487785339
0.710558116436 -0.00343686854467 0.00703973276541 -0.70359313488 -48.9372062683 67.6577148438 0.509658157825
0.710363328457 -0.00256275432184 0.00663414923474 -0.703797459602 -48.9416809082 67.4669876099 0.530350148678
0.710000753403 -0.00216272403486 0.00600467668846 -0.704170167446 -48.9452438354 67.2750930786 0.513159751892
0.709859251976 -0.00152248714585 0.00631204387173 -0.704311788082 -48.9465141296 67.0726470947 0.518952250481
0.709885656834 -0.00204615923576 0.00639668479562 -0.704283177853 -48.9535598755 66.8769454956 0.528184592724
0.709822952747 -0.00249341968447 0.00703599816188 -0.704338848591 -48.9439125061 66.6675567627 0.516743004322
0.709637463093 -0.00235547334887 0.00712765846401 -0.704525232315 -48.9353904724 66.4623413086 0.539002716541
0.709681630135 -0.0023392776493 0.00654430268332 -0.704486489296 -48.9519691467 66.2458496094 0.520020365715
0.709638416767 -0.00154797104187 0.00681724445894 -0.704529583454 -48.9604606628 66.0262145996 0.541611492634
0.709565579891 -0.00222796527669 0.00576254772022 -0.704610526562 -48.9721679688 65.8166046143 0.52990591526
0.7096773386 -0.00145921146031 0.0056562628597 -0.704500854015 -48.9811248779 65.5983428955 0.501484453678
0.709881484509 -0.00126276130322 0.00637262035161 -0.70428943634 -48.9930343628 65.370262146 0.5165143013
0.709981322289 -0.00171360978857 0.0067834588699 -0.704183936119 -48.9808006287 65.1600646973 0.508688628674
0.70984774828 -0.00123602780513 0.00628808885813 -0.704324185848 -48.9791679382 64.9286575317 0.439178109169
0.709614098072 0.00177959399298 0.00809789076447 -0.704539954662 -48.9852561951 64.6976165771 0.425402998924
0.709688961506 0.00299047701992 0.0103760622442 -0.704430580139 -48.9832725525 64.4607315063 0.400666058064
0.710101604462 0.00412216549739 0.0125551857054 -0.703973412514 -48.9889183044 64.2199172974 0.493675142527
0.710093140602 0.00211917213164 0.0107234194875 -0.70402109623 -48.9835853577 63.9869804382 0.49916306138
0.710030972958 0.00113980483729 0.00854805763811 -0.70411580801 -48.9910087585 63.7685775757 0.473821669817
0.709787070751 0.000633103540167 0.00712583726272 -0.704378128052 -48.9916381836 63.5433731079 0.479621767998
0.709579527378 0.000303214561427 0.0064275120385 -0.704594194889 -48.9865341187 63.339225769 0.448658168316
0.709672152996 0.000287482165731 0.00738181173801 -0.704491555691 -48.9868202209 63.1041145325 0.453465491533
0.709734797478 1.75606783159e-06 0.0074332007207 -0.704427957535 -48.9851951599 62.8929100037 0.469993382692
0.709472060204 0.000571546086576 0.00653342809528 -0.704701244831 -48.9757423401 62.671962738 0.40737169981
0.70942312479 0.00269662425853 0.00685163028538 -0.70474255085 -48.9824409485 62.4465103149 0.394160687923
0.709386348724 0.00394190382212 0.0085224378854 -0.704755544662 -48.988697052 62.2073364258 0.440009355545
0.709469974041 0.00196389481425 0.00897660665214 -0.704673945904 -48.9832458496 61.9707832336 0.461524784565
0.709696352482 -0.000316242541885 0.00819284003228 -0.704458236694 -48.9715232849 61.7495574951 0.450409829617
0.709739089012 -0.000648451270536 0.00759647041559 -0.704421639442 -48.9632034302 61.5514678955 0.449085742235
0.709717750549 -0.000570451666135 0.00751434825361 -0.704444110394 -48.9595718384 61.3337364197 0.455785572529
0.709655463696 -0.000732293585315 0.00766762485728 -0.704505085945 -48.9573059082 61.1218566895 0.458351969719
0.709699332714 -0.00134931504726 0.00793460290879 -0.704456984997 -48.9593772888 60.9161148071 0.451363146305
0.70987123251 -0.000177912254003 0.00780042819679 -0.704286575317 -48.9501419067 60.6999359131 0.449496626854
0.710248231888 2.29775996559e-05 0.00789052154869 -0.703905403614 -48.9625587463 60.4745330811 0.502676606178
0.710453569889 -0.00260417279787 0.00836607255042 -0.703687846661 -48.974647522 60.268913269 0.501631617546
0.710376143456 -0.00406428333372 0.00864946097136 -0.703755676746 -48.956615448 60.0631790161 0.483679413795
0.71019756794 -0.00199067988433 0.00776653317735 -0.703955054283 -48.9523696899 59.8465232849 0.519224107265
0.710209488869 -0.00147366698366 0.00589954573661 -0.703962504864 -48.971698761 59.6366195679 0.541718780994
0.710282981396 -0.00291895633563 0.00445931404829 -0.703894436359 -48.9729537964 59.4189872742 0.543288648129
0.710140347481 -0.00373182725161 0.00355670554563 -0.704039573669 -48.9703559875 59.2220191956 0.542897939682
0.710116922855 -0.00458927871659 0.00340379169211 -0.704058885574 -48.9782981873 59.0053520203 0.58204382658
0.710122466087 -0.00804795045406 0.00324124936014 -0.704023003578 -48.978187561 58.8105049133 0.560121953487
0.710322380066 -0.00906466878951 0.00447052437812 -0.703802227974 -48.9474601746 58.6093292236 0.514881134033
0.710944652557 -0.00874398369342 0.00629502534866 -0.703163683414 -48.9478416443 58.3762626648 0.61825978756
0.710728049278 -0.0100623909384 0.00232400046661 -0.7033893466 -48.9546127319 58.1738433838 0.576593577862
0.710187971592 -0.00700601609424 0.000856874918099 -0.703975021839 -48.9537010193 57.9832763672 0.552086412907
0.709950506687 -0.00519805634394 -0.000114246162411 -0.704230666161 -48.9917106628 57.7480430603 0.634238064289
0.709684312344 -0.00828382093459 -0.00162655394524 -0.704467475414 -48.9983024597 57.5314254761 0.590259790421
0.709938406944 -0.0100575862452 0.000427020248026 -0.704190135002 -48.9853515625 57.3284988403 0.57414150238
0.710388123989 -0.011652472429 0.00233154557645 -0.70370811224 -48.9697380066 57.0975761414 0.549355506897
0.71090555191 -0.0116673596203 0.00253862189129 -0.703184425831 -48.9593696594 56.8683013916 0.589864611626
0.710604131222 -0.0094719491899 0.000984415062703 -0.703525900841 -48.9406433105 56.6662368774 0.523701131344
0.710905432701 -0.00619645789266 0.00179073656909 -0.703256368637 -48.9782714844 56.4058914185 0.604138016701
0.710647881031 -0.00707197235897 -0.000568140530959 -0.703510403633 -48.9914016724 56.1675453186 0.601066768169
0.710693478584 -0.00757648004219 -0.000739418203011 -0.70345890522 -48.9892997742 55.958404541 0.579328596592
0.711004734039 -0.00742556434125 -0.00028251009644 -0.703146278858 -48.9934310913 55.7175064087 0.596987724304
0.711065530777 -0.00857616402209 -0.000449304381618 -0.703071653843 -48.9920845032 55.4911880493 0.595300793648
0.710908651352 -0.00875423848629 7.22961631254e-05 -0.703228294849 -48.981300354 55.25365448 0.568129777908
0.71107596159 -0.00901744421571 0.000498990819324 -0.703055560589 -48.9813041687 55.0103492737 0.569747149944
0.711437284946 -0.00901076942682 0.00122554635163 -0.702689111233 -48.9757919312 54.7642211914 0.503364145756
0.711731553078 -0.00566877890378 0.00308738742024 -0.702420294285 -48.9671630859 54.5217781067 0.503712415695
0.711694896221 -0.00459770997986 0.00343172485009 -0.702463686466 -48.9832267761 54.2471694946 0.560053765774
0.711240708828 -0.00517177488655 0.00293685658835 -0.702921807766 -48.9849205017 54.0077171326 0.562193512917
0.711172699928 -0.00734978495166 0.00274530146271 -0.702971994877 -48.983959198 53.7667427063 0.540897428989
0.711573779583 -0.00869740080088 0.00502160238102 -0.702538073063 -48.9682579041 53.5275192261 0.511294782162
0.712078630924 -0.00718483794481 0.00513789616525 -0.702042579651 -48.949760437 53.2780418396 0.504395246506
0.712233245373 -0.00522946333513 0.00383926043287 -0.701911270618 -48.9576377869 53.0327644348 0.512247920036
0.711747169495 -0.00372836180031 0.00291788601317 -0.702418208122 -48.9736251831 52.7852020264 0.474846363068
0.711246728897 -0.00253926985897 0.00420220755041 -0.702923715115 -48.9798660278 52.5369873047 0.470542311668
0.711627066135 -0.00459908368066 0.00671565812081 -0.702508687973 -48.9938774109 52.2703742981 0.477159529924
0.712316572666 -0.00675165606663 0.00911865290254 -0.70176500082 -48.9649772644 52.0357780457 0.444392859936
0.712926089764 -0.00547588104382 0.00976612139493 -0.701148152351 -48.9451942444 51.7827911377 0.440562695265
0.712979257107 -0.00251336488873 0.00766929378733 -0.701137065887 -48.9491424561 51.5396156311 0.427059620619
0.712490975857 0.000832601159345 0.00544953299686 -0.701658010483 -48.9774971008 51.3050804138 0.413169562817
0.711987733841 0.00235617696308 0.00498277135193 -0.702168643475 -49.00573349 51.0575637817 0.410815566778
0.712039887905 0.000812459853478 0.00683170417324 -0.702103674412 -49.0145606995 50.8080062866 0.40310806036
0.712547719479 -0.00138034322299 0.00936080515385 -0.701558232307 -48.9929847717 50.5745697021 0.435940057039
0.712969779968 -0.0037577257026 0.00887128897011 -0.701126933098 -48.97681427 50.3437347412 0.413700222969
0.71310544014 -0.00205579749309 0.00819712225348 -0.701004207134 -48.9607772827 50.1180877686 0.354226589203
0.712940692902 0.00201418111101 0.00725742056966 -0.701182246208 -48.9797897339 49.8625869751 0.410376787186
0.71256506443 0.00216780835763 0.00454228837043 -0.7015863657 -48.9954109192 49.6324691772 0.370532006025
0.712639212608 0.00298532424495 0.00581799913198 -0.701498568058 -49.0046653748 49.4015884399 0.36464330554
0.712983906269 0.00194153049961 0.00705606164411 -0.701140522957 -49.0113258362 49.1635971069 0.437945067883
0.712947547436 -0.00112572847866 0.00504513131455 -0.701196670532 -48.9936485291 48.9452323914 0.391884177923
0.713271141052 0.00016894696455 0.00565522396937 -0.700863718987 -48.9863014221 48.7169876099 0.359363555908
0.713226377964 0.00125412398484 0.00595599692315 -0.700905621052 -48.9893531799 48.4683113098 0.398623526096
0.712854981422 0.00120442965999 0.00400797044858 -0.701297342777 -48.9855422974 48.2413291931 0.368955880404
0.7127622962 0.0029399190098 0.00393151165918 -0.701386809349 -49.0008049011 48.0075798035 0.365842849016
0.71279489994 0.00223591830581 0.00367018952966 -0.701357662678 -49.0120849609 47.7726173401 0.392464548349
0.712910354137 0.00150766188744 0.00394992996007 -0.701240777969 -49.0018768311 47.5490531921 0.360320717096
0.712972223759 0.00279390322976 0.00387880695052 -0.701174259186 -48.9985389709 47.3007240295 0.383510053158
0.712777554989 0.00272919377312 0.00235997606069 -0.701379179955 -49.0025062561 47.0726509094 0.368903517723
0.712767362595 0.00313328695484 0.00275611993857 -0.701386392117 -49.0103416443 46.8326530457 0.359554708004
0.71274638176 0.00275089871138 0.00307341851294 -0.701408028603 -49.011932373 46.5956497192 0.385028660297
0.71282941103 0.00212507043034 0.00339375063777 -0.701324284077 -49.0016288757 46.3722000122 0.368806451559
0.712976932526 0.00215179775842 0.0039743934758 -0.701171159744 -48.9904785156 46.1337776184 0.388428032398
0.713004291058 0.00208350899629 0.00340348482132 -0.701146602631 -48.9874305725 45.9122619629 0.377968937159
0.712974727154 0.00331194791943 0.0031566740945 -0.701173126698 -48.9878578186 45.6697044373 0.375049769878
0.712887883186 0.00402596080676 0.00241199834272 -0.701260566711 -48.9913330078 45.4302406311 0.398843109608
0.712539196014 0.00406832667068 0.00178627343848 -0.701616466045 -48.9891471863 45.2062454224 0.381789892912
0.71256518364 0.00427634874359 0.00225259596482 -0.701587498188 -48.9902992249 44.969165802 0.391259014606
0.712615728378 0.00371302384883 0.00240177521482 -0.701538860798 -48.9817428589 44.7331237793 0.389728963375
0.712574481964 0.00379885407165 0.00287715741433 -0.701578497887 -48.97133255 44.4924736023 0.387714326382
0.712418496609 0.00354641326703 0.00289826793596 -0.701738119125 -48.9701271057 44.2669868469 0.409602999687
0.712284684181 0.00287265446968 0.00312117324211 -0.701876044273 -48.9613685608 44.0408172607 0.399291008711
0.71223282814 0.00256617506966 0.00381610775366 -0.701926410198 -48.9557418823 43.8011665344 0.399188131094
0.712290108204 0.00254187127575 0.00415104767308 -0.701866447926 -48.9529418945 43.5649414062 0.401162654161
0.712404370308 0.00267604109831 0.00424085138366 -0.701749444008 -48.9472961426 43.3263931274 0.409660190344
0.712337911129 0.00281343003735 0.00392091600224 -0.701818287373 -48.9461174011 43.1016769409 0.405198693275
0.712303698063 0.00328861433081 0.00399242900312 -0.70185059309 -48.9483337402 42.8509178162 0.406810551882
0.712088227272 0.00297530926764 0.00403449498117 -0.702070295811 -48.943271637 42.6209945679 0.416737854481
0.712053716183 0.00241494062357 0.004555829335 -0.702104270458 -48.9341011047 42.388004303 0.409906327724
0.712313890457 0.00224097678438 0.00515725649893 -0.701836764812 -48.9304618835 42.142250061 0.41359809041
0.712435781956 0.00221682852134 0.00517384288833 -0.701712965965 -48.9176597595 41.9034423828 0.414458543062
0.712384104729 0.00291688577272 0.00475462898612 -0.701765775681 -48.9162712097 41.6653633118 0.41743311286
0.712243795395 0.00351897231303 0.00413648271933 -0.701909422874 -48.9194107056 41.4233665466 0.418722182512
0.712091207504 0.00371220801026 0.00411617010832 -0.702063322067 -48.915599823 41.191116333 0.40842244029
0.712075293064 0.00369039271027 0.00446358555928 -0.702077507973 -48.9073295593 40.956653595 0.417270004749
0.712139964104 0.003196508158 0.00468166172504 -0.702012896538 -48.9020309448 40.7165985107 0.40965744853
0.712167203426 0.00338505348191 0.00508334022015 -0.701981544495 -48.8949661255 40.4690170288 0.410043537617
0.712186098099 0.00370919262059 0.00475388299674 -0.701963067055 -48.8941955566 40.231388092 0.409804075956
0.712201833725 0.00448289653286 0.00442034006119 -0.701944768429 -48.8966789246 39.9858551025 0.400388211012
0.711906015873 0.00481732282788 0.00427838647738 -0.702243447304 -48.8881835938 39.7564811707 0.409755021334
0.711857795715 0.00466728862375 0.00442766165361 -0.702292442322 -48.8822364807 39.5244445801 0.395591557026
0.711779236794 0.00473089609295 0.00499345548451 -0.702367842197 -48.8729057312 39.2810783386 0.399656563997
0.711727440357 0.00423420034349 0.00520507944748 -0.70242190361 -48.8624267578 39.0390396118 0.390374332666
0.711811900139 0.00436968868598 0.00584429409355 -0.70233041048 -48.8543815613 38.7885742188 0.373192101717
0.711876392365 0.00455413619056 0.00624224450439 -0.702260494232 -48.8450698853 38.5420570374 0.390338510275
0.71174710989 0.0042657777667 0.00624229479581 -0.702393293381 -48.8327865601 38.3149261475 0.375618577003
0.711817443371 0.00374407577328 0.00719674071297 -0.702315807343 -48.8245201111 38.0614891052 0.343418329954
0.711958050728 0.00355234695598 0.008609643206 -0.70215845108 -48.8140106201 37.7960319519 0.353931248188
0.712017297745 0.00313619477674 0.00885812006891 -0.70209723711 -48.790058136 37.5531654358 0.35740506649
0.712022423744 0.00332039850764 0.00850233435631 -0.70209556818 -48.7745780945 37.3182182312 0.34795743227
0.71194255352 0.00377729441971 0.0083390250802 -0.70217615366 -48.7676925659 37.0740127563 0.334104627371
0.711715757847 0.00435291323811 0.0085486266762 -0.702400147915 -48.7513618469 36.8242378235 0.327030241489
0.711711466312 0.00372765422799 0.00950017478317 -0.70239585638 -48.7429237366 36.5680923462 0.340350270271
0.711580693722 0.00189575052354 0.0104470895603 -0.702522218227 -48.7104949951 36.3463745117 0.325790405273
0.71220344305 0.00084585143486 0.0119323404506 -0.701869249344 -48.6825714111 36.0886650085 0.300668179989
0.712579250336 -0.000196196415345 0.0142716960981 -0.70144456625 -48.6580696106 35.830165863 0.30081692338
0.712846577168 -0.00133849412668 0.015645634383 -0.701142311096 -48.6400260925 35.5730018616 0.29547265172
0.712810516357 -0.000918138830457 0.015527185984 -0.701182246208 -48.6219787598 35.318649292 0.288984656334
0.712758481503 -8.60615400597e-05 0.015074102208 -0.701245605946 -48.6147918701 35.0675239563 0.286616712809
0.712844252586 -0.0003302769328 0.0153869735077 -0.701151549816 -48.6056594849 34.819858551 0.287056416273
0.712977170944 -0.00107807363383 0.0163299702108 -0.700994312763 -48.5888595581 34.5711097717 0.283868134022
0.712990105152 -0.000742879172321 0.0164196770638 -0.700979471207 -48.5699653625 34.3217277527 0.289219915867
0.712821960449 -0.000108760701551 0.0154781742021 -0.701172232628 -48.5537147522 34.0755691528 0.291050553322
0.712631762028 -0.000579536892474 0.0155114177614 -0.701364576817 -48.5306625366 33.8337936401 0.2793597579
0.712914228439 -0.00152386294212 0.0169042665511 -0.701043903828 -48.5143280029 33.5745162964 0.261428683996
0.713243305683 -0.00208401400596 0.0181697756052 -0.700675964355 -48.4894142151 33.3173599243 0.252225726843
0.713380634785 -0.00218637962826 0.0189344398677 -0.700515508652 -48.4729690552 33.059425354 0.268588513136
0.713416695595 -0.00196414464153 0.0181144028902 -0.700501203537 -48.457118988 32.8128585815 0.284034490585
0.713531851768 -0.00197541015223 0.0171802546829 -0.700407445431 -48.4386100769 32.5606422424 0.271104633808
0.713498771191 -0.00144366209861 0.0168560557067 -0.700450360775 -48.4294967651 32.3094863892 0.280632525682
0.713400542736 -0.00167534151115 0.0162446536124 -0.700564324856 -48.4220085144 32.0582122803 0.294006794691
0.713025808334 -0.00261415727437 0.0161403957754 -0.700945258141 -48.3979988098 31.8137321472 0.265559703112
0.713134467602 -0.00355719542131 0.0176270827651 -0.700794637203 -48.3744010925 31.5530128479 0.270809918642
0.713535547256 -0.00490816356614 0.0184206012636 -0.700357675552 -48.3468093872 31.2962665558 0.255973488092
0.713751375675 -0.00427666027099 0.0193032678217 -0.700118124485 -48.3406257629 31.0252475739 0.255764603615
0.713678896427 -0.00370212923735 0.018876010552 -0.700206935406 -48.33177948 30.7525215149 0.301456809044
0.713338494301 -0.00580070307478 0.0171472709626 -0.700583934784 -48.3182945251 30.4914264679 0.271351903677
0.713197231293 -0.00691490294412 0.0182826686651 -0.700688898563 -48.2953720093 30.2321929932 0.260229706764
0.713475167751 -0.00845526438206 0.0194964352995 -0.700356245041 -48.2665557861 29.9636249542 0.284575849771
0.713831603527 -0.00929920841008 0.0195174142718 -0.699981629848 -48.2445869446 29.7104988098 0.270871907473
0.713699817657 -0.00886527635157 0.0196483358741 -0.700118005276 -48.2278556824 29.4496326447 0.302694857121
0.713323712349 -0.00969773624092 0.01809941791 -0.700531840324 -48.2085800171 29.1896076202 0.280288994312
0.713145673275 -0.0091230366379 0.0182660687715 -0.700716495514 -48.1889572144 28.9271736145 0.265201091766
0.713167667389 -0.01019296702 0.0189022012055 -0.70066255331 -48.1728858948 28.6609802246 0.294779628515
0.713325917721 -0.0124623784795 0.0193014461547 -0.700453817844 -48.1441955566 28.4052906036 0.25594907999
0.7137144804 -0.013241241686 0.0213914960623 -0.699982881546 -48.1059799194 28.13646698 0.257034093142
0.713850736618 -0.013495801948 0.0218557566404 -0.699824690819 -48.0828475952 27.8678894043 0.292883485556
0.713769555092 -0.0148624405265 0.0219935271889 -0.699875473976 -48.0655555725 27.6166229248 0.283901125193
0.713609158993 -0.0142698129639 0.0217610616237 -0.700058579445 -48.0512237549 27.3544845581 0.302623391151
0.713203370571 -0.0117706889287 0.0196255836636 -0.700581610203 -48.0314826965 27.0924472809 0.325791925192
0.713239848614 -0.0110167525709 0.0176781900227 -0.700608491898 -48.0256233215 26.8297805786 0.310792714357
0.713738977909 -0.0128952264786 0.0177276972681 -0.700066685677 -48.0046272278 26.5616455078 0.300482362509
0.714238464832 -0.013459761627 0.0179732553661 -0.699540138245 -47.9825363159 26.301902771 0.276577711105
0.71415746212 -0.0130848959088 0.019404951483 -0.699591696262 -47.959980011 26.0402336121 0.309809565544
0.714016199112 -0.0137844635174 0.0185411702842 -0.699745893478 -47.9449081421 25.7748012543 0.319395214319
0.714064478874 -0.0146243879572 0.0178388562053 -0.699697852135 -47.918170929 25.523021698 0.29842504859
0.714576482773 -0.0138295432553 0.0179467853159 -0.699188351631 -47.8968696594 25.2635726929 0.298504322767
0.714843392372 -0.012733890675 0.0173873156309 -0.698950409889 -47.879650116 24.9959049225 0.329323589802
0.714774310589 -0.0122819151729 0.0156866759062 -0.69906938076 -47.8702278137 24.7295398712 0.325263112783
0.714458167553 -0.0118399243802 0.0142278624699 -0.699431300163 -47.851776123 24.4697399139 0.306677043438
0.714625895023 -0.0112015930936 0.0143856666982 -0.699267268181 -47.8302764893 24.199300766 0.301103323698
0.71484375 -0.011280384846 0.0147544918582 -0.699035525322 -47.8174476624 23.9365692139 0.327812105417
0.714921236038 -0.0116917788982 0.0136350169778 -0.698972284794 -47.7936973572 23.677192688 0.332272171974
0.71488571167 -0.0118656437844 0.0124768652022 -0.69902741909 -47.7734870911 23.4264736176 0.302069753408
0.715104460716 -0.0110859228298 0.0133553659543 -0.69880014658 -47.7510452271 23.1659431458 0.303559660912
0.715609550476 -0.0111005129293 0.0135500831529 -0.698278903961 -47.7346153259 22.8887062073 0.315343946218
0.715993285179 -0.0111295506358 0.0131865888834 -0.697891950607 -47.7337188721 22.6253967285 0.306176811457
0.715776205063 -0.0102295260876 0.0128712058067 -0.698134243488 -47.7131500244 22.3687934875 0.299135655165
0.715728402138 -0.0103975841776 0.0129310823977 -0.698179602623 -47.6913528442 22.1068305969 0.294403672218
0.715997457504 -0.0116238212213 0.0139357615262 -0.697865068913 -47.6609916687 21.8539123535 0.286868184805
0.716593205929 -0.0106430249289 0.0144517179579 -0.697258412838 -47.6367301941 21.5936260223 0.321049362421
0.716940879822 -0.00899455416948 0.0119130276144 -0.696972191334 -47.6307563782 21.3331432343 0.321529835463
0.716802835464 -0.00714858574793 0.00990994554013 -0.697166860104 -47.6254577637 21.0670642853 0.289042711258
0.716570556164 -0.00684314034879 0.00993491895497 -0.69740831852 -47.6127891541 20.8144855499 0.30293956399
0.716599524021 -0.00938733760267 0.0104367863387 -0.697341620922 -47.5835266113 20.5687332153 0.272498071194
0.717140674591 -0.0101240091026 0.0126320477575 -0.696738481522 -47.5387954712 20.3125095367 0.271386861801
0.717555522919 -0.0097635788843 0.0133448587731 -0.696303009987 -47.5071029663 20.0560512543 0.303252011538
0.717877089977 -0.00857390090823 0.0114599382505 -0.696020722389 -47.4951019287 19.8083515167 0.299735248089
0.717641294003 -0.00573113141581 0.00987761281431 -0.696317315102 -47.4826393127 19.553686142 0.316009759903
0.717525243759 -0.00591981457546 0.007896611467 -0.696460604668 -47.477104187 19.3009700775 0.299914389849
0.717547118664 -0.007739554625 0.00849547702819 -0.69641315937 -47.4549407959 19.0617427826 0.256296753883
0.717990636826 -0.0083833374083 0.0108384126797 -0.695915877819 -47.4292640686 18.8125686646 0.293197393417
0.718436777592 -0.00915343407542 0.0104579785839 -0.695451378822 -47.4039840698 18.5693645477 0.288944005966
0.718642950058 -0.00743479514495 0.00989533867687 -0.695267081261 -47.3765182495 18.3240432739 0.28567045927
0.718664884567 -0.00549970148131 0.00844969321042 -0.69528144598 -47.360912323 18.0759239197 0.309008747339
0.718525469303 -0.00529492646456 0.00704143196344 -0.695442855358 -47.3535041809 17.8252086639 0.267411589622
0.718613624573 -0.00440550083295 0.00772815849632 -0.695350646973 -47.3376922607 17.5796527863 0.291079670191
0.719059824944 -0.00585508113727 0.0070704636164 -0.694885551929 -47.3041419983 17.3397922516 0.288844048977
0.719710469246 -0.00618282100186 0.00722919590771 -0.694207131863 -47.2819595337 17.0950431824 0.252924591303
0.719992101192 -0.00428912881762 0.00775581831113 -0.693923652172 -47.2544288635 16.8479804993 0.293515712023
0.720101833344 -0.00453904643655 0.00594826834276 -0.693826079369 -47.2368583679 16.6038913727 0.271737217903
0.720351874828 -0.00465263426304 0.00592141179368 -0.693565905094 -47.2200737 16.358839035 0.245999291539
0.720986306667 -0.00451897131279 0.00644541112706 -0.692902624607 -47.1954956055 16.1130371094 0.256494760513
0.721481859684 -0.00481851166114 0.00646185409278 -0.692384421825 -47.1719284058 15.8701982498 0.249861061573
0.721752464771 -0.00437110196799 0.00675643142313 -0.692102491856 -47.1462440491 15.6350975037 0.272847533226
0.722017586231 -0.00482089770958 0.0056543876417 -0.691832780838 -47.1143302917 15.3938159943 0.249738976359
0.72252202034 -0.00530674448237 0.00625945487991 -0.6912971735 -47.09375 15.1498622894 0.236346825957
0.723252177238 -0.00556969689205 0.00700479280204 -0.690523982048 -47.0629806519 14.9046192169 0.249080255628
0.723899126053 -0.00579308299348 0.006663500797 -0.689847290516 -47.0302124023 14.6715393066 0.239815220237
0.724430680275 -0.00577700790018 0.00680932542309 -0.689287781715 -46.9974937439 14.4293794632 0.232063949108
0.724983394146 -0.00641233241186 0.00715486472473 -0.6886972785 -46.9680938721 14.1854686737 0.219235569239
0.725892543793 -0.00626450777054 0.00789797585458 -0.687732219696 -46.9331436157 13.9412889481 0.217710420489
0.72675293684 -0.00559012498707 0.00789966713637 -0.686828792095 -46.8912315369 13.7052001953 0.246449321508
0.72753071785 -0.00525642884895 0.00682207988575 -0.686019003391 -46.868522644 13.4607038498 0.230001240969
0.728184223175 -0.00478164711967 0.00623915763572 -0.685334324837 -46.8291244507 13.2166891098 0.213451832533
0.728937506676 -0.00508226593956 0.00660568708554 -0.68452745676 -46.7828216553 12.9859390259 0.20035469532
0.729981422424 -0.00555795105174 0.00760552519932 -0.6833999753 -46.7282447815 12.7502536774 0.214422538877
0.73126488924 -0.00558393727988 0.00762478541583 -0.682026028633 -46.6736373901 12.5160179138 0.220875799656
0.732461631298 -0.0049230796285 0.00707724317908 -0.680751621723 -46.6305961609 12.2793664932 0.222411572933
0.73345386982 -0.00378255173564 0.00621302844957 -0.679698228836 -46.587638855 12.0379905701 0.213307335973
0.734435796738 -0.00374250137247 0.00593430455774 -0.678639829159 -46.5461730957 11.8095016479 0.206573083997
0.735716819763 -0.00450867973268 0.00599198881537 -0.677245676517 -46.4914321899 11.5766973495 0.205860644579
0.737020969391 -0.0048693488352 0.00610891217366 -0.675822675228 -46.4230651855 11.354057312 0.20299500227
0.73859000206 -0.00431062141433 0.00596428848803 -0.674112677574 -46.362991333 11.1222257614 0.204668909311
0.739976525307 -0.00334359891713 0.0055563673377 -0.672599315643 -46.2987442017 10.8999414444 0.211345568299
0.741347134113 -0.00300085847266 0.00478426320478 -0.671095907688 -46.2348594666 10.6674671173 0.206020191312
0.742829144001 -0.00332778086886 0.00441848486662 -0.669456064701 -46.1753730774 10.4472370148 0.199734583497
0.744403243065 -0.00399535149336 0.00444805854931 -0.667701482773 -46.0974349976 10.2261915207 0.198774635792
0.746059715748 -0.00489683076739 0.00463658571243 -0.66584277153 -46.0219230652 10.0097408295 0.196086570621
0.74780601263 -0.00487788347527 0.00487800128758 -0.663879334927 -45.9420433044 9.79747104645 0.210427552462
0.749449074268 -0.00453484850004 0.00418245606124 -0.662031173706 -45.8620223999 9.58302783966 0.211326315999
0.751194000244 -0.0040784352459 0.00378939532675 -0.660055935383 -45.7919807434 9.35862922668 0.212448626757
0.752858698368 -0.00442186044529 0.00304972403683 -0.658158183098 -45.7108383179 9.14821910858 0.202857017517
0.754594504833 -0.00519282417372 0.00296358880587 -0.656162023544 -45.6249275208 8.9436044693 0.199703127146
0.75629645586 -0.00633948622271 0.00325623271056 -0.654188156128 -45.5320053101 8.73521709442 0.201600730419
0.758169710636 -0.00703764194623 0.00344342575409 -0.652008056641 -45.4407081604 8.53312492371 0.207016959786
0.760262072086 -0.00686969608068 0.00348395830952 -0.649568676949 -45.3588104248 8.31317329407 0.216590762138
0.762244105339 -0.00735600106418 0.00314650172368 -0.647238075733 -45.2633781433 8.11230182648 0.196136966348
0.76430785656 -0.0075503080152 0.00335848797113 -0.644796490669 -45.1737785339 7.89354848862 0.205558508635
0.766424119473 -0.00854687485844 0.00298796477728 -0.642268955708 -45.0669021606 7.69255256653 0.192296549678
0.768742501736 -0.00910468772054 0.00326669728383 -0.63948315382 -44.9723777771 7.49027633667 0.195321932435
0.771039307117 -0.00930988229811 0.00323048909195 -0.636709153652 -44.8553886414 7.29146528244 0.208856791258
0.773341834545 -0.00936183519661 0.00292059103958 -0.633911311626 -44.7472343445 7.09496021271 0.217401638627
0.775733113289 -0.00973820593208 0.00229178345762 -0.630979716778 -44.6357383728 6.89912986755 0.219505935907
0.778001129627 -0.010731941089 0.00180445041042 -0.628166496754 -44.5213623047 6.71694326401 0.220580592752
0.780471324921 -0.0117564434186 0.00153384171426 -0.625077009201 -44.4012794495 6.5235619545 0.198813468218
0.783300220966 -0.0109408935532 0.00202057044953 -0.621541917324 -44.2770271301 6.32726716995 0.22760130465
0.786292672157 -0.010812480934 0.00118074193597 -0.61775636673 -44.1403121948 6.13873195648 0.211594223976
0.789481699467 -0.011569481343 0.0010622740956 -0.613662004471 -44.0057601929 5.95241880417 0.183528095484
0.792631924152 -0.0116526028141 0.00207650149241 -0.609583497047 -43.8595466614 5.76058959961 0.181007623672
0.795750617981 -0.0126895997673 0.0030524241738 -0.605481743813 -43.7031326294 5.56729793549 0.179862603545
0.79912263155 -0.0120633151382 0.0041251857765 -0.601030707359 -43.55052948 5.37452030182 0.223735228181
0.802325129509 -0.0108904307708 0.00287603423931 -0.596778810024 -43.3960762024 5.18535995483 0.267849564552
0.805431187153 -0.0110230073333 0.000143589713844 -0.592584609985 -43.2433319092 5.00762319565 0.235455617309
0.808715283871 -0.0108545841649 -0.000725557329133 -0.588097572327 -43.0962409973 4.81854343414 0.203169733286
0.812100529671 -0.0103915417567 -0.00027366168797 -0.583422899246 -42.9317321777 4.64054870605 0.212299719453
0.815455794334 -0.00999022368342 3.50001537299e-05 -0.578731060028 -42.7556838989 4.46328735352 0.236691832542
0.818841814995 -0.0103507936001 -0.000771835097112 -0.573923289776 -42.5801849365 4.29434347153 0.238158434629
0.82235211134 -0.01105600968 -0.001050127903 -0.568868517876 -42.4113349915 4.12749052048 0.232383072376
0.825895667076 -0.0102691017091 -0.000903173990082 -0.563726723194 -42.2335700989 3.95587015152 0.2594871521
0.8294069767 -0.0106068234891 -0.00159983406775 -0.558539867401 -42.0537109375 3.79485797882 0.260958611965
0.83276039362 -0.012574031949 -0.00189336657058 -0.553485512733 -41.8743171692 3.63426423073 0.223925977945
0.836182296276 -0.0126363532618 -0.000210680562304 -0.548304021358 -41.6857795715 3.47100067139 0.262813150883
0.839622378349 -0.0128720998764 -0.000432703527622 -0.543015897274 -41.4932403564 3.3165166378 0.278294831514
0.843043088913 -0.0121210627258 -0.00070957740536 -0.537707030773 -41.3039016724 3.16478919983 0.304391235113
0.846343874931 -0.0116866156459 -0.00163505226374 -0.532504200935 -41.1107254028 3.0093228817 0.292546987534
0.849630892277 -0.0113782919943 -0.00194057729095 -0.527249515057 -40.9187736511 2.85619449615 0.284096688032
0.852881968021 -0.0106894345954 -0.00165452086367 -0.521989762783 -40.7235298157 2.70397400856 0.295550942421
0.85601079464 -0.0114328861237 -0.00175425363705 -0.516826510429 -40.5108566284 2.57033824921 0.299024552107
0.859267413616 -0.0125234723091 -0.00180840911344 -0.511368095875 -40.3062324524 2.42650008202 0.303363442421
0.862520575523 -0.0121859274805 -0.00127112749033 -0.505871653557 -40.0916671753 2.28815698624 0.312452971935
0.865759849548 -0.0117289852351 -0.00131401210092 -0.500318527222 -39.880405426 2.14754295349 0.32442715764
0.86897444725 -0.0117629114538 -0.00172605924308 -0.494712203741 -39.672618866 2.00865674019 0.317488223314
0.872167646885 -0.0111313872039 -0.00118072074838 -0.489077150822 -39.4618988037 1.86929380894 0.318165332079
0.875293850899 -0.0102755082771 -0.00102092255838 -0.483479261398 -39.2425956726 1.73215055466 0.338041931391
0.878405570984 -0.0104733007029 -0.00196463591419 -0.477795243263 -39.0232620239 1.60241866112 0.322909533978
0.881494820118 -0.0105647612363 -0.00178783934098 -0.472070217133 -38.7988052368 1.47430193424 0.308108597994
0.884624838829 -0.0108471922576 -0.000887161702849 -0.466174483299 -38.5715370178 1.3484774828 0.332774698734
0.887652993202 -0.0107859922573 -0.0011307890527 -0.460383236408 -38.3449363708 1.22847723961 0.358552068472
0.890556454659 -0.0110000120476 -0.00247218529694 -0.454731047153 -38.1172409058 1.10696613789 0.321956187487
0.893334150314 -0.0101235639304 -0.00113414612133 -0.449275523424 -37.8888320923 0.979174613953 0.327169001102
0.895987153053 -0.00988229364157 -0.00085469573969 -0.443967163563 -37.6528778076 0.861562907696 0.349520802498
0.898601293564 -0.0107309399173 -0.00150862417649 -0.438630282879 -37.4207305908 0.747988045216 0.33323931694
0.901235997677 -0.0105781583115 -0.000796420325059 -0.433196753263 -37.1790046692 0.632946193218 0.342717587948
0.903961122036 -0.0102702165022 -0.000835949089378 -0.427488476038 -36.9362564087 0.531066834927 0.351500988007
0.906543731689 -0.010351122357 -0.00121874606702 -0.421981185675 -36.6847496033 0.430274188519 0.33046272397
0.90883243084 -0.0103747127578 1.71055751252e-06 -0.417030185461 -36.4362106323 0.329252004623 0.358723074198
0.911206781864 -0.0120788486674 -0.000747358077206 -0.411769330502 -36.1842384338 0.231445938349 0.335874885321
0.913666188717 -0.0128294061869 0.000530593155418 -0.406260401011 -35.9329833984 0.133394911885 0.344474196434
0.916184663773 -0.0126809589565 0.00112751580309 -0.400552034378 -35.6865844727 0.0293716266751 0.375081717968
0.91854339838 -0.0131832985207 0.000469080987386 -0.395097881556 -35.4402618408 -0.0761507228017 0.361798882484
0.920730531216 -0.0127119002864 0.000917464727536 -0.389988660812 -35.2011260986 -0.18870934844 0.362520515919
0.922857701778 -0.0125639783219 0.000837851781398 -0.38493296504 -34.9506492615 -0.287630677223 0.375143229961
0.925004482269 -0.0136606562883 0.000705530284904 -0.379707694054 -34.6951560974 -0.376111358404 0.361010998487
0.927322685719 -0.0148880928755 0.0012946621282 -0.373962074518 -34.440826416 -0.459365159273 0.384624838829
0.929665982723 -0.0154185928404 0.00099891575519 -0.368077218533 -34.1801643372 -0.546793341637 0.391998440027
0.931913793087 -0.0141735607758 0.0010327626951 -0.362399071455 -33.9345397949 -0.647541701794 0.417645215988
0.933998763561 -0.012723644264 1.09555194285e-05 -0.357047349215 -33.6813774109 -0.736585617065 0.409671783447
0.936099231243 -0.0124695664272 -0.000543850415852 -0.351512253284 -33.42603302 -0.823355913162 0.400097310543
0.938235938549 -0.0131401782855 -0.000631704227999 -0.345743685961 -33.1711654663 -0.914875209332 0.414054900408
0.940286874771 -0.0142635479569 -0.00129233673215 -0.340079426765 -32.9099388123 -0.996294856071 0.40953335166
0.94221252203 -0.0147222261876 -0.00137957709376 -0.334687054157 -32.6467895508 -1.08001625538 0.415310353041
0.944054603577 -0.0152537338436 -0.00159244367387 -0.329430222511 -32.3778457642 -1.15264701843 0.413709759712
0.945949077606 -0.0149618890136 -0.00111453561112 -0.323965698481 -32.1106567383 -1.23496472836 0.425851285458
0.947800815105 -0.0137822413817 -0.00151482946239 -0.318559139967 -31.8409137726 -1.3081382513 0.463326454163
