  -4.8625000e+01   4.1620213e+01   3.1329536e-01   6.9514233e-01   1.0087130e-02   1.1427879e-02  -7.1870881e-01
  -4.8620968e+01   4.1763145e+01   3.2515940e-01   6.9529378e-01   1.0218482e-02   1.0980473e-02  -7.1856749e-01
  -4.8602798e+01   4.1909721e+01   3.2364118e-01   6.9517130e-01   1.0518014e-02   1.0303422e-02  -7.1869165e-01
  -4.8598015e+01   4.2062370e+01   3.2902151e-01   6.9526279e-01   1.1030214e-02   9.6624894e-03  -7.1860433e-01
  -4.8595371e+01   4.2205666e+01   3.2964516e-01   6.9543338e-01   1.0956427e-02   9.6578551e-03  -7.1844047e-01
  -4.8588642e+01   4.2374863e+01   3.4847790e-01   6.9524002e-01   1.0410553e-02   1.0017323e-02  -7.1863079e-01
  -4.8578720e+01   4.2534618e+01   3.4482974e-01   6.9503105e-01   1.0022565e-02   9.9041397e-03  -7.1883994e-01
  -4.8578804e+01   4.2698509e+01   3.5344857e-01   6.9499236e-01   1.0139992e-02   9.8015470e-03  -7.1887714e-01
  -4.8582199e+01   4.2864544e+01   3.5598701e-01   6.9492614e-01   1.0150556e-02   9.4534215e-03  -7.1894568e-01
  -4.8589695e+01   4.3035099e+01   3.5439906e-01   6.9468158e-01   1.0383633e-02   9.1618244e-03  -7.1918243e-01
  -4.8593826e+01   4.3208252e+01   3.6097988e-01   6.9427079e-01   1.0682639e-02   8.8329231e-03  -7.1957874e-01
  -4.8598412e+01   4.3384834e+01   3.7200627e-01   6.9400603e-01   1.0560140e-02   8.7361299e-03  -7.1983707e-01
  -4.8593956e+01   4.3572655e+01   3.7853318e-01   6.9378120e-01   9.9094491e-03   8.9283157e-03  -7.2006059e-01
  -4.8594269e+01   4.3751598e+01   3.8318938e-01   6.9374233e-01   9.5098978e-03   9.0010753e-03  -7.2010261e-01
  -4.8597992e+01   4.3923183e+01   3.9200112e-01   6.9371009e-01   9.6906899e-03   8.8685555e-03  -7.2013289e-01
  -4.8594574e+01   4.4102474e+01   4.0045273e-01   6.9368792e-01   9.5956856e-03   8.3503304e-03  -7.2016168e-01
  -4.8590591e+01   4.4278801e+01   3.9194906e-01   6.9392413e-01   9.4766840e-03   8.1943274e-03  -7.1993744e-01
  -4.8582531e+01   4.4444035e+01   4.0264237e-01   6.9412065e-01   9.5242150e-03   8.3635123e-03  -7.1974546e-01
  -4.8577347e+01   4.4613873e+01   4.0628269e-01   6.9443053e-01   9.3087424e-03   8.1501082e-03  -7.1945173e-01
  -4.8564060e+01   4.4780720e+01   4.0376836e-01   6.9486201e-01   9.0083210e-03   8.3710467e-03  -7.1903628e-01
  -4.8554867e+01   4.4942162e+01   4.1155025e-01   6.9538653e-01   8.7171560e-03   8.7219272e-03  -7.1852845e-01
  -4.8546112e+01   4.5101398e+01   4.1243774e-01   6.9587862e-01   8.4135002e-03   8.6630890e-03  -7.1805614e-01
  -4.8540138e+01   4.5262905e+01   4.0918198e-01   6.9623333e-01   8.3549945e-03   8.7427534e-03  -7.1771193e-01
  -4.8532265e+01   4.5410934e+01   4.1665006e-01   6.9660795e-01   8.3217518e-03   8.6396867e-03  -7.1734995e-01
  -4.8522240e+01   4.5566296e+01   4.1280532e-01   6.9704241e-01   8.1944466e-03   8.6352620e-03  -7.1692932e-01
  -4.8516655e+01   4.5714325e+01   4.2425203e-01   6.9751918e-01   8.3467485e-03   8.5797431e-03  -7.1646434e-01
  -4.8508659e+01   4.5873150e+01   4.1442624e-01   6.9784671e-01   8.3555095e-03   8.1134420e-03  -7.1615070e-01
  -4.8505749e+01   4.6023815e+01   4.1479826e-01   6.9826543e-01   8.6339591e-03   8.0831517e-03  -7.1573949e-01
  -4.8502056e+01   4.6172783e+01   4.1951558e-01   6.9861466e-01   8.7425029e-03   7.7896053e-03  -7.1540052e-01
  -4.8498795e+01   4.6322273e+01   4.1828895e-01   6.9898951e-01   8.7681357e-03   7.6341000e-03  -7.1503562e-01
  -4.8493752e+01   4.6468018e+01   4.1434020e-01   6.9939297e-01   8.5380469e-03   7.7774073e-03  -7.1464223e-01
  -4.8486099e+01   4.6612167e+01   4.2095560e-01   6.9986486e-01   8.3934190e-03   8.0353310e-03  -7.1417898e-01
  -4.8483528e+01   4.6759151e+01   4.2403468e-01   7.0032513e-01   8.3345128e-03   7.7598793e-03  -7.1373129e-01
  -4.8481922e+01   4.6907295e+01   4.1693377e-01   7.0076078e-01   8.4466506e-03   7.4657435e-03  -7.1330547e-01
  -4.8484642e+01   4.7055363e+01   4.1252401e-01   7.0117480e-01   8.7273531e-03   7.3013203e-03  -7.1289676e-01
  -4.8485500e+01   4.7207047e+01   4.2128342e-01   7.0166826e-01   8.9423852e-03   7.0889671e-03  -7.1241063e-01
  -4.8485352e+01   4.7366310e+01   4.1842428e-01   7.0222926e-01   8.9187967e-03   6.7529604e-03  -7.1186119e-01
  -4.8492840e+01   4.7517452e+01   4.1477594e-01   7.0272052e-01   9.1524962e-03   6.6182213e-03  -7.1137452e-01
  -4.8480656e+01   4.7665611e+01   4.1525090e-01   7.0293051e-01   9.3833627e-03   6.3396408e-03  -7.1116662e-01
  -4.8480858e+01   4.7827549e+01   4.1960931e-01   7.0337039e-01   9.3760826e-03   6.1693322e-03  -7.1073306e-01
  -4.8478718e+01   4.7982735e+01   4.2633963e-01   7.0381743e-01   9.0151466e-03   6.2122182e-03  -7.1029472e-01
  -4.8474174e+01   4.8137512e+01   4.2178494e-01   7.0433503e-01   8.5464604e-03   6.4989813e-03  -7.0978475e-01
  -4.8472122e+01   4.8285439e+01   4.2239633e-01   7.0472705e-01   8.0865836e-03   6.8857712e-03  -7.0939726e-01
  -4.8464359e+01   4.8435925e+01   4.2714015e-01   7.0499837e-01   7.7001522e-03   7.1790824e-03  -7.0912898e-01
  -4.8462498e+01   4.8580669e+01   4.2698041e-01   7.0536834e-01   7.4602901e-03   7.2677941e-03  -7.0876265e-01
  -4.8461304e+01   4.8721264e+01   4.2472073e-01   7.0562011e-01   7.7443193e-03   6.9399187e-03  -7.0851231e-01
  -4.8468975e+01   4.8860416e+01   4.2104024e-01   7.0564735e-01   8.2839858e-03   6.4085284e-03  -7.0848399e-01
  -4.8473465e+01   4.9002022e+01   4.2633671e-01   7.0563638e-01   8.3373263e-03   6.4215376e-03  -7.0849419e-01
  -4.8468262e+01   4.9137154e+01   4.3803209e-01   7.0574003e-01   7.7604461e-03   6.8490626e-03  -7.0839351e-01
  -4.8470192e+01   4.9274681e+01   4.3494466e-01   7.0611143e-01   6.9349990e-03   7.3630549e-03  -7.0802671e-01
  -4.8465855e+01   4.9409351e+01   4.2553753e-01   7.0638716e-01   6.8824315e-03   7.4704504e-03  -7.0775098e-01
  -4.8468014e+01   4.9537064e+01   4.3063790e-01   7.0643020e-01   7.5832587e-03   7.0577133e-03  -7.0770508e-01
  -4.8470928e+01   4.9673084e+01   4.3052715e-01   7.0626736e-01   8.0113923e-03   6.5077334e-03  -7.0786810e-01
  -4.8480633e+01   4.9800064e+01   4.3008468e-01   7.0642745e-01   8.0310768e-03   6.4374097e-03  -7.0770878e-01
  -4.8485168e+01   4.9931534e+01   4.3021685e-01   7.0672858e-01   7.6630381e-03   6.7007612e-03  -7.0740974e-01
  -4.8482098e+01   5.0061245e+01   4.3028477e-01   7.0704269e-01   7.3582721e-03   7.0079402e-03  -7.0709604e-01
  -4.8480724e+01   5.0199150e+01   4.2981297e-01   7.0707554e-01   7.0838407e-03   7.0737051e-03  -7.0706528e-01
  -4.8475086e+01   5.0330124e+01   4.2805687e-01   7.0702368e-01   6.9216937e-03   7.3117930e-03  -7.0711643e-01
  -4.8470833e+01   5.0465687e+01   4.3309253e-01   7.0692122e-01   6.5200897e-03   7.5866743e-03  -7.0721972e-01
  -4.8477863e+01   5.0603073e+01   4.2777011e-01   7.0711690e-01   6.1987205e-03   7.6834210e-03  -7.0702589e-01
  -4.8479149e+01   5.0736656e+01   4.2224047e-01   7.0722806e-01   6.0399561e-03   7.8726858e-03  -7.0691401e-01
  -4.8479935e+01   5.0876450e+01   4.2253378e-01   7.0733166e-01   5.9507443e-03   7.9749068e-03  -7.0681000e-01
  -4.8485580e+01   5.1033894e+01   4.2616442e-01   7.0722622e-01   5.7372823e-03   8.0835512e-03  -7.0691603e-01
  -4.8487106e+01   5.1172066e+01   4.2886746e-01   7.0723486e-01   5.4824338e-03   8.1670731e-03  -7.0690846e-01
  -4.8488865e+01   5.1324642e+01   4.2416474e-01   7.0727503e-01   5.1514073e-03   8.3217528e-03  -7.0686889e-01
  -4.8487713e+01   5.1470158e+01   4.3212157e-01   7.0742106e-01   4.9370904e-03   8.5454965e-03  -7.0672160e-01
  -4.8487431e+01   5.1635895e+01   4.4333357e-01   7.0736223e-01   5.0472440e-03   8.1482930e-03  -7.0678443e-01
  -4.8496166e+01   5.1793690e+01   4.4412959e-01   7.0722544e-01   4.8369025e-03   7.6204785e-03  -7.0692867e-01
  -4.8501499e+01   5.1937340e+01   4.1083974e-01   7.0717233e-01   4.5423796e-03   8.7439893e-03  -7.0697081e-01
  -4.8503059e+01   5.2067112e+01   4.5118308e-01   7.0720512e-01   5.0331112e-03   1.0220735e-02  -7.0691484e-01
  -4.8500240e+01   5.2218803e+01   4.4067457e-01   7.0721364e-01   4.1929767e-03   9.3047656e-03  -7.0692444e-01
  -4.8510078e+01   5.2362083e+01   4.4068035e-01   7.0746654e-01   4.5171906e-03   9.6356152e-03  -7.0666486e-01
  -4.8513210e+01   5.2503265e+01   4.7118872e-01   7.0736104e-01   4.3816073e-03   9.2066620e-03  -7.0677710e-01
  -4.8514317e+01   5.2658375e+01   4.4567192e-01   7.0707965e-01   4.0505212e-03   8.6846119e-03  -7.0706713e-01
  -4.8525024e+01   5.2786625e+01   4.6701166e-01   7.0716178e-01   4.4064070e-03   9.0448484e-03  -7.0697832e-01
  -4.8528854e+01   5.2934097e+01   4.7292256e-01   7.0732307e-01   3.1010767e-03   9.0929186e-03  -7.0682341e-01
  -4.8529369e+01   5.3066551e+01   4.6712378e-01   7.0749110e-01   2.5858500e-03   9.6398443e-03  -7.0664996e-01
  -4.8534142e+01   5.3199261e+01   4.6218875e-01   7.0742106e-01   2.4405564e-03   9.4727697e-03  -7.0672292e-01
  -4.8537361e+01   5.3313053e+01   4.4903755e-01   7.0721352e-01   2.4070232e-03   1.0342633e-02  -7.0691848e-01
  -4.8543621e+01   5.3439735e+01   4.8125970e-01   7.0720750e-01   2.1821093e-03   1.0668699e-02  -7.0692044e-01
  -4.8536350e+01   5.3577385e+01   4.7334319e-01   7.0726228e-01   1.2556684e-03   1.0374742e-02  -7.0687222e-01
  -4.8538952e+01   5.3706806e+01   4.8971540e-01   7.0755208e-01   1.5022842e-03   1.0550026e-02  -7.0657903e-01
  -4.8547695e+01   5.3837132e+01   5.0515825e-01   7.0761591e-01   1.3832722e-03   9.4381636e-03  -7.0653111e-01
  -4.8552315e+01   5.3968788e+01   4.8377603e-01   7.0740885e-01   1.6563884e-03   8.5777454e-03  -7.0674878e-01
  -4.8567127e+01   5.4090561e+01   5.1728380e-01   7.0741832e-01   1.9477000e-03   8.6720912e-03  -7.0673740e-01
  -4.8568245e+01   5.4222973e+01   5.1311988e-01   7.0751220e-01   1.7722367e-04   8.6400360e-03  -7.0664644e-01
  -4.8563629e+01   5.4359859e+01   5.0768965e-01   7.0770782e-01  -7.8827189e-04   9.5034223e-03  -7.0643902e-01
  -4.8564247e+01   5.4486633e+01   5.3852528e-01   7.0774770e-01  -1.0612684e-03   9.4809383e-03  -7.0639896e-01
  -4.8569321e+01   5.4620502e+01   5.3659564e-01   7.0763558e-01  -1.6644198e-03   9.0501998e-03  -7.0651579e-01
  -4.8575939e+01   5.4750950e+01   5.6054676e-01   7.0748955e-01  -1.9969041e-03   9.2080394e-03  -7.0665914e-01
  -4.8576981e+01   5.4889637e+01   5.5666745e-01   7.0738727e-01  -3.2475004e-03   9.1601973e-03  -7.0675749e-01
  -4.8564995e+01   5.5014782e+01   5.5654091e-01   7.0740283e-01  -3.4424376e-03   9.5619233e-03  -7.0673567e-01
  -4.8571693e+01   5.5150532e+01   5.9318626e-01   7.0759583e-01  -3.2715455e-03   8.9181140e-03  -7.0655167e-01
  -4.8583233e+01   5.5292980e+01   5.8385205e-01   7.0772785e-01  -3.3259019e-03   7.6070386e-03  -7.0643455e-01
  -4.8604351e+01   5.5416931e+01   5.8803338e-01   7.0797759e-01  -2.2214155e-03   6.6171791e-03  -7.0619851e-01
  -4.8614723e+01   5.5553513e+01   6.0857159e-01   7.0804459e-01  -1.6070249e-03   5.6751375e-03  -7.0614123e-01
  -4.8625626e+01   5.5689022e+01   6.0182786e-01   7.0814621e-01  -1.8123391e-03   5.3030015e-03  -7.0604175e-01
  -4.8626228e+01   5.5805103e+01   6.1418813e-01   7.0823896e-01  -2.1128035e-03   5.5772201e-03  -7.0594579e-01
  -4.8623142e+01   5.5935577e+01   6.2912202e-01   7.0814878e-01  -3.2052121e-03   5.9097130e-03  -7.0602942e-01
  -4.8610550e+01   5.6066605e+01   6.3711834e-01   7.0797741e-01  -4.1849748e-03   6.3411104e-03  -7.0619231e-01
  -4.8607487e+01   5.6196072e+01   6.4392769e-01   7.0801246e-01  -5.0951527e-03   6.6404813e-03  -7.0614851e-01
  -4.8593094e+01   5.6332436e+01   6.4348674e-01   7.0812327e-01  -5.3022560e-03   6.5475488e-03  -7.0603669e-01
  -4.8599003e+01   5.6459442e+01   6.5336341e-01   7.0836121e-01  -5.0969059e-03   6.1705974e-03  -7.0580292e-01
  -4.8603668e+01   5.6593025e+01   6.5871024e-01   7.0837486e-01  -4.7104629e-03   5.2182670e-03  -7.0579952e-01
  -4.8620834e+01   5.6723526e+01   6.5295267e-01   7.0838654e-01  -3.7085323e-03   4.2043403e-03  -7.0580065e-01
  -4.8635284e+01   5.6838715e+01   6.5672624e-01   7.0848489e-01  -3.0146758e-03   3.6193484e-03  -7.0570838e-01
  -4.8639282e+01   5.6965805e+01   6.6177267e-01   7.0871735e-01  -3.0800619e-03   3.4368017e-03  -7.0547563e-01
  -4.8647301e+01   5.7098850e+01   6.6270369e-01   7.0897377e-01  -3.0522863e-03   3.2830657e-03  -7.0521873e-01
  -4.8649612e+01   5.7220741e+01   6.8213016e-01   7.0894575e-01  -3.2917790e-03   3.4392937e-03  -7.0524508e-01
  -4.8652718e+01   5.7349468e+01   7.1648937e-01   7.0880783e-01  -4.0752771e-03   3.4642564e-03  -7.0537949e-01
  -4.8652023e+01   5.7479336e+01   7.2285604e-01   7.0873398e-01  -4.8639253e-03   2.9371122e-03  -7.0545113e-01
  -4.8657547e+01   5.7611282e+01   7.0905834e-01   7.0893502e-01  -5.2370466e-03   2.5794762e-03  -7.0524782e-01
  -4.8664921e+01   5.7734673e+01   6.7531937e-01   7.0917475e-01  -4.7516297e-03   2.3050338e-03  -7.0501113e-01
  -4.8683426e+01   5.7856079e+01   6.9061881e-01   7.0937198e-01  -3.2244381e-03   2.7193869e-03  -7.0481986e-01
  -4.8696033e+01   5.7976334e+01   7.0949727e-01   7.0931530e-01  -3.2441961e-03   2.3003970e-03  -7.0487827e-01
  -4.8699375e+01   5.8123142e+01   7.0042461e-01   7.0927066e-01  -3.5608266e-03   1.9262650e-03  -7.0492280e-01
  -4.8691715e+01   5.8259903e+01   6.9328290e-01   7.0929998e-01  -4.0162555e-03   2.4450042e-03  -7.0488924e-01
  -4.8695332e+01   5.8403118e+01   6.9620514e-01   7.0971346e-01  -4.6711620e-03   3.4293861e-03  -7.0446479e-01
  -4.8697128e+01   5.8550537e+01   7.0952034e-01   7.0995706e-01  -5.0574737e-03   3.8463792e-03  -7.0421445e-01
  -4.8705944e+01   5.8700661e+01   7.0516336e-01   7.1006018e-01  -5.0573819e-03   3.3328470e-03  -7.0411313e-01
  -4.8712776e+01   5.8839245e+01   6.9936335e-01   7.0999992e-01  -4.9381326e-03   3.0053072e-03  -7.0417613e-01
  -4.8726524e+01   5.8982216e+01   7.1022278e-01   7.1018213e-01  -5.3909067e-03   3.0774844e-03  -7.0398879e-01
  -4.8712967e+01   5.9128258e+01   6.8217820e-01   7.1021444e-01  -4.6124831e-03   2.3035528e-03  -7.0396477e-01
  -4.8743565e+01   5.9235619e+01   7.2073877e-01   7.1073514e-01  -3.2752957e-03   2.6467580e-03  -7.0344526e-01
  -4.8759865e+01   5.9360813e+01   7.5168455e-01   7.1049434e-01  -4.6215793e-03   1.9009822e-03  -7.0368332e-01
  -4.8755951e+01   5.9503532e+01   7.2072673e-01   7.1017146e-01  -5.8015347e-03   1.5977519e-03  -7.0400119e-01
  -4.8749828e+01   5.9641235e+01   6.6190803e-01   7.1040082e-01  -6.4492640e-03   2.9046694e-03  -7.0375997e-01
  -4.8746372e+01   5.9758820e+01   6.9694841e-01   7.1116918e-01  -5.2609849e-03   5.5990391e-03  -7.0297712e-01
  -4.8738640e+01   5.9874226e+01   7.2154135e-01   7.1135986e-01  -4.7782199e-03   5.3959200e-03  -7.0278919e-01
  -4.8746639e+01   6.0013443e+01   7.1953976e-01   7.1115816e-01  -3.9698086e-03   3.6857722e-03  -7.0300937e-01
  -4.8762096e+01   6.0151402e+01   6.9091213e-01   7.1083796e-01  -2.7764849e-03   2.0860480e-03  -7.0334536e-01
  -4.8773609e+01   6.0273094e+01   6.8256092e-01   7.1101320e-01  -2.6832935e-03   3.4238559e-03  -7.0316327e-01
  -4.8763783e+01   6.0385262e+01   6.6529316e-01   7.1156132e-01  -3.0367493e-03   4.9136216e-03  -7.0259833e-01
  -4.8769363e+01   6.0499485e+01   6.9059110e-01   7.1213555e-01  -2.5769074e-03   6.2124981e-03  -7.0200789e-01
  -4.8779221e+01   6.0607746e+01   6.7888474e-01   7.1191579e-01  -3.6141558e-03   6.2406338e-03  -7.0222592e-01
  -4.8782421e+01   6.0737064e+01   6.4093161e-01   7.1152031e-01  -3.3057048e-03   6.2830122e-03  -7.0262778e-01
  -4.8780739e+01   6.0839535e+01   6.5231168e-01   7.1165228e-01  -2.3306969e-03   7.4756090e-03  -7.0248634e-01
  -4.8778286e+01   6.0953808e+01   6.4011073e-01   7.1212786e-01  -2.2830309e-03   7.7304235e-03  -7.0200157e-01
  -4.8786217e+01   6.1061901e+01   6.2727427e-01   7.1245420e-01  -1.2688435e-03   7.2864830e-03  -7.0167774e-01
  -4.8796780e+01   6.1176975e+01   6.1601466e-01   7.1208900e-01   1.7095382e-04   5.8849351e-03  -7.0206261e-01
  -4.8811878e+01   6.1297867e+01   5.9314537e-01   7.1165377e-01   1.8890594e-03   5.2208481e-03  -7.0250654e-01
  -4.8836597e+01   6.1398933e+01   6.0040289e-01   7.1190113e-01   1.4358180e-03   6.4509790e-03  -7.0224667e-01
  -4.8833492e+01   6.1513889e+01   5.8002645e-01   7.1242189e-01  -5.8065209e-04   8.0393897e-03  -7.0170325e-01
  -4.8828888e+01   6.1619312e+01   5.7857484e-01   7.1277010e-01  -9.1758260e-04   9.4870189e-03  -7.0133102e-01
  -4.8819584e+01   6.1732685e+01   5.5838954e-01   7.1269953e-01  -9.0594572e-04   9.6359253e-03  -7.0140076e-01
  -4.8826729e+01   6.1841312e+01   5.4132581e-01   7.1253097e-01   2.8851151e-04   9.2072347e-03  -7.0157826e-01
  -4.8837898e+01   6.1945229e+01   5.4462957e-01   7.1251112e-01   9.4660959e-04   9.0022674e-03  -7.0160055e-01
  -4.8833660e+01   6.2062508e+01   5.3696316e-01   7.1261984e-01   3.3921003e-04   9.3552247e-03  -7.0148605e-01
  -4.8831570e+01   6.2176300e+01   5.3584617e-01   7.1275580e-01   1.5860971e-04   9.7218575e-03  -7.0134300e-01
  -4.8837444e+01   6.2293926e+01   5.2759653e-01   7.1253973e-01   1.0801749e-03   8.8001676e-03  -7.0157385e-01
  -4.8870331e+01   6.2411953e+01   5.3615564e-01   7.1217597e-01   2.5267997e-03   7.4788956e-03  -7.0195472e-01
  -4.8894344e+01   6.2535145e+01   5.3343076e-01   7.1207798e-01   2.7866859e-03   6.8366327e-03  -7.0205975e-01
  -4.8896950e+01   6.2655609e+01   5.2396268e-01   7.1209615e-01   2.3673703e-03   6.9890362e-03  -7.0204127e-01
  -4.8888760e+01   6.2754837e+01   5.3215247e-01   7.1222991e-01   1.7027643e-03   7.9381047e-03  -7.0189744e-01
  -4.8885799e+01   6.2873276e+01   5.3120571e-01   7.1232903e-01   9.1715454e-04   8.3355447e-03  -7.0179373e-01
  -4.8886330e+01   6.2984283e+01   5.1958883e-01   7.1229851e-01   1.1177126e-03   8.0962749e-03  -7.0182717e-01
  -4.8893436e+01   6.3093723e+01   5.1261073e-01   7.1214402e-01   1.8777688e-03   7.4596955e-03  -7.0198941e-01
  -4.8905331e+01   6.3194389e+01   5.1500475e-01   7.1211952e-01   2.5627285e-03   7.1109813e-03  -7.0201570e-01
  -4.8919498e+01   6.3302269e+01   5.1778507e-01   7.1225178e-01   2.5751253e-03   7.0037674e-03  -7.0188260e-01
  -4.8921761e+01   6.3410347e+01   5.0856167e-01   7.1223491e-01   2.3703675e-03   6.8970928e-03  -7.0190150e-01
  -4.8927502e+01   6.3500816e+01   5.0434417e-01   7.1224213e-01   2.4988146e-03   6.9694300e-03  -7.0189297e-01
  -4.8925716e+01   6.3612724e+01   5.0779194e-01   7.1220618e-01   2.6350389e-03   6.9895466e-03  -7.0192879e-01
  -4.8934917e+01   6.3718376e+01   5.0488883e-01   7.1224451e-01   2.5828942e-03   6.8634497e-03  -7.0189130e-01
  -4.8938190e+01   6.3817413e+01   4.9942729e-01   7.1221501e-01   2.5582556e-03   6.8791094e-03  -7.0192122e-01
  -4.8937225e+01   6.3920120e+01   4.9942803e-01   7.1212935e-01   2.4684628e-03   7.0485719e-03  -7.0200676e-01
  -4.8934982e+01   6.4027748e+01   4.9619469e-01   7.1214539e-01   1.9255014e-03   7.3997648e-03  -7.0198858e-01
  -4.8939796e+01   6.4125595e+01   5.0822765e-01   7.1220100e-01   2.6759400e-03   6.9919829e-03  -7.0193392e-01
  -4.8954128e+01   6.4228889e+01   5.3596389e-01   7.1221077e-01   3.5957994e-03   5.4723476e-03  -7.0193338e-01
  -4.8958416e+01   6.4342491e+01   5.4104781e-01   7.1226656e-01   2.4053471e-03   5.6334916e-03  -7.0188057e-01
  -4.8944695e+01   6.4438858e+01   5.2413088e-01   7.1236706e-01   1.3922897e-04   7.4917031e-03  -7.0176530e-01
  -4.8932545e+01   6.4518547e+01   5.0561994e-01   7.1236110e-01  -4.8731430e-04   9.1485130e-03  -7.0175159e-01
  -4.8921406e+01   6.4588631e+01   5.1528859e-01   7.1220267e-01   2.8119507e-04   9.3973847e-03  -7.0190918e-01
  -4.8935829e+01   6.4687531e+01   5.2893740e-01   7.1204263e-01   1.3708810e-03   7.5733801e-03  -7.0209229e-01
  -4.8956936e+01   6.4780777e+01   5.2182990e-01   7.1190262e-01   2.7657012e-03   5.6823837e-03  -7.0224792e-01
  -4.8965900e+01   6.4866943e+01   5.1393384e-01   7.1174473e-01   3.3863960e-03   5.2004624e-03  -7.0240903e-01
  -4.8962116e+01   6.4945702e+01   5.1590341e-01   7.1160269e-01   2.6643337e-03   6.2063076e-03  -7.0254791e-01
  -4.8959362e+01   6.5022743e+01   5.1312447e-01   7.1183157e-01   1.2806377e-03   7.7679395e-03  -7.0230436e-01
  -4.8947460e+01   6.5100456e+01   5.1048964e-01   7.1206397e-01   2.2016605e-04   8.8753672e-03  -7.0205671e-01
  -4.8946922e+01   6.5177780e+01   5.0515538e-01   7.1218109e-01   1.2147596e-04   8.8861659e-03  -7.0193779e-01
  -4.8955006e+01   6.5264374e+01   5.0742435e-01   7.1192807e-01   1.1632740e-03   7.8160549e-03  -7.0220619e-01
  -4.8961376e+01   6.5349678e+01   5.0639123e-01   7.1162164e-01   2.2957304e-03   6.6434769e-03  -7.0252603e-01
  -4.8969700e+01   6.5429932e+01   5.0770861e-01   7.1154380e-01   2.6063339e-03   6.6233044e-03  -7.0260400e-01
  -4.8975677e+01   6.5507004e+01   5.0755972e-01   7.1176207e-01   1.6900732e-03   7.4247322e-03  -7.0237768e-01
  -4.8964771e+01   6.5587517e+01   4.9925658e-01   7.1182370e-01   8.5073087e-04   8.2416805e-03  -7.0230764e-01
  -4.8957703e+01   6.5667816e+01   5.0100690e-01   7.1174037e-01   5.3547032e-04   8.6212205e-03  -7.0238787e-01
  -4.8956879e+01   6.5739059e+01   4.8953581e-01   7.1171516e-01   5.1217689e-04   8.5242949e-03  -7.0241457e-01
  -4.8960426e+01   6.5804741e+01   4.9395487e-01   7.1167696e-01   9.5783680e-04   8.3864108e-03  -7.0245451e-01
  -4.8972019e+01   6.5880951e+01   5.1576638e-01   7.1143770e-01   1.6494519e-03   7.4113351e-03  -7.0270646e-01
  -4.8987255e+01   6.5952446e+01   5.3422964e-01   7.1127295e-01   2.2604836e-03   5.6622303e-03  -7.0288777e-01
  -4.8996502e+01   6.6016045e+01   5.5853367e-01   7.1131361e-01   2.4942285e-03   4.4774543e-03  -7.0285439e-01
  -4.8993023e+01   6.6082451e+01   5.6772530e-01   7.1152633e-01   5.4160116e-04   5.3107315e-03  -7.0263743e-01
  -4.8972504e+01   6.6141426e+01   5.6397235e-01   7.1187323e-01  -2.0640080e-03   7.3795682e-03  -7.0226443e-01
  -4.8949867e+01   6.6197838e+01   5.5462360e-01   7.1199000e-01  -3.3470669e-03   8.7657692e-03  -7.0212519e-01
  -4.8940681e+01   6.6254921e+01   5.4002607e-01   7.1195644e-01  -2.9765188e-03   8.6531667e-03  -7.0216233e-01
  -4.8947430e+01   6.6306602e+01   5.3756630e-01   7.1177459e-01  -1.5648969e-03   7.6854443e-03  -7.0236242e-01
  -4.8961830e+01   6.6362610e+01   5.3421205e-01   7.1157718e-01  -4.4091642e-04   6.4484929e-03  -7.0257652e-01
  -4.8974777e+01   6.6416489e+01   5.3433311e-01   7.1131319e-01   8.8576262e-04   5.4697618e-03  -7.0285165e-01
  -4.8977932e+01   6.6476952e+01   5.4475117e-01   7.1106017e-01   1.1282504e-03   5.2279867e-03  -7.0310909e-01
  -4.8971851e+01   6.6537590e+01   5.4775822e-01   7.1106142e-01   1.3521347e-04   6.1377813e-03  -7.0310134e-01
  -4.8963760e+01   6.6600266e+01   5.4474723e-01   7.1127898e-01  -9.3295670e-04   7.0707845e-03  -7.0287192e-01
  -4.8956360e+01   6.6662949e+01   5.4484177e-01   7.1140766e-01  -1.2588711e-03   7.3720589e-03  -7.0273811e-01
  -4.8957573e+01   6.6732643e+01   5.4090124e-01   7.1136385e-01  -1.0098707e-03   7.0363414e-03  -7.0278627e-01
  -4.8960091e+01   6.6808334e+01   5.3798157e-01   7.1108562e-01  -3.9410076e-04   6.4953435e-03  -7.0307362e-01
  -4.8965317e+01   6.6889793e+01   5.3726095e-01   7.1091443e-01  -7.9260375e-05   6.3237394e-03  -7.0324838e-01
  -4.8964863e+01   6.6968269e+01   5.3311265e-01   7.1102852e-01  -2.9022698e-04   6.4662811e-03  -7.0313162e-01
  -4.8958553e+01   6.7053955e+01   5.3103995e-01   7.1120054e-01  -7.2884187e-04   6.9669830e-03  -7.0295256e-01
  -4.8957848e+01   6.7139748e+01   5.3025824e-01   7.1131843e-01  -9.2551729e-04   7.0827967e-03  -7.0283192e-01
  -4.8965508e+01   6.7228996e+01   5.3687882e-01   7.1132189e-01  -6.7568524e-04   6.7581064e-03  -7.0283180e-01
  -4.8963722e+01   6.7320908e+01   5.4307175e-01   7.1117169e-01  -9.0699003e-04   6.5333936e-03  -7.0298570e-01
  -4.8963562e+01   6.7404785e+01   5.4046160e-01   7.1123630e-01  -1.4992566e-03   6.8233171e-03  -7.0291656e-01
  -4.8968845e+01   6.7485977e+01   5.3756553e-01   7.1139765e-01  -1.5755310e-03   7.0075020e-03  -7.0275134e-01
  -4.8961918e+01   6.7579308e+01   5.3211701e-01   7.1144122e-01  -1.6985179e-03   7.0353872e-03  -7.0270658e-01
  -4.8959568e+01   6.7661278e+01   5.3555906e-01   7.1148217e-01  -1.4619170e-03   6.9219186e-03  -7.0266682e-01
  -4.8960930e+01   6.7752541e+01   5.4265219e-01   7.1137518e-01  -1.4425390e-03   6.5626148e-03  -7.0277864e-01
  -4.8967384e+01   6.7834641e+01   5.3400481e-01   7.1137899e-01  -1.5681895e-03   6.3856924e-03  -7.0277619e-01
  -4.8969471e+01   6.7912766e+01   5.4097223e-01   7.1147567e-01  -1.3906969e-03   6.3961321e-03  -7.0267856e-01
  -4.8971516e+01   6.7990349e+01   5.3685027e-01   7.1158528e-01  -1.7126577e-03   6.4830314e-03  -7.0256603e-01
  -4.8973034e+01   6.8076263e+01   5.3905368e-01   7.1163487e-01  -1.9447634e-03   6.7273001e-03  -7.0251292e-01
  -4.8971405e+01   6.8158699e+01   5.4041398e-01   7.1151900e-01  -2.2041325e-03   6.6466159e-03  -7.0263022e-01
  -4.8970791e+01   6.8239960e+01   5.3671259e-01   7.1154827e-01  -2.2663141e-03   6.6920198e-03  -7.0260000e-01
  -4.8975365e+01   6.8328804e+01   5.4082769e-01   7.1171141e-01  -2.2916654e-03   6.4958818e-03  -7.0243645e-01
  -4.8973995e+01   6.8408470e+01   5.3723329e-01   7.1184123e-01  -2.3783823e-03   6.3270489e-03  -7.0230621e-01
  -4.8981911e+01   6.8484436e+01   5.3791779e-01   7.1183676e-01  -2.1883161e-03   6.0902159e-03  -7.0231348e-01
  -4.8986759e+01   6.8559425e+01   5.4195219e-01   7.1173739e-01  -2.1448040e-03   5.9899157e-03  -7.0241511e-01
  -4.8984810e+01   6.8638863e+01   5.3880197e-01   7.1176994e-01  -2.4685797e-03   6.1185658e-03  -7.0237994e-01
  -4.8979992e+01   6.8717018e+01   5.4158515e-01   7.1189272e-01  -2.6078490e-03   6.2314146e-03  -7.0225400e-01
  -4.8991947e+01   6.8788193e+01   5.3656876e-01   7.1215683e-01  -2.5494553e-03   6.0907612e-03  -7.0198762e-01
  -4.9002823e+01   6.8860466e+01   5.3556341e-01   7.1221864e-01  -2.1130834e-03   5.7013724e-03  -7.0192957e-01
  -4.9005512e+01   6.8926407e+01   5.3299415e-01   7.1203423e-01  -1.7576653e-03   5.3166398e-03  -7.0212066e-01
  -4.9008041e+01   6.8997246e+01   5.2802432e-01   7.1207464e-01  -1.6960724e-03   5.3420234e-03  -7.0207965e-01
  -4.9010963e+01   6.9067627e+01   5.2865499e-01   7.1228981e-01  -1.7149720e-03   5.4128841e-03  -7.0186079e-01
  -4.9016537e+01   6.9136436e+01   5.2552801e-01   7.1248066e-01  -1.7911083e-03   5.3551402e-03  -7.0166731e-01
  -4.9015560e+01   6.9201263e+01   5.2607435e-01   7.1249294e-01  -1.5263248e-03   5.1418757e-03  -7.0165712e-01
  -4.9019325e+01   6.9271446e+01   5.2694219e-01   7.1239942e-01  -1.1144272e-03   4.6127979e-03  -7.0175648e-01
  -4.9022484e+01   6.9337936e+01   5.2934605e-01   7.1233672e-01  -9.0329646e-04   4.3541789e-03  -7.0182216e-01
  -4.9020195e+01   6.9403336e+01   5.2806777e-01   7.1241063e-01  -1.2440359e-03   4.5604510e-03  -7.0174527e-01
  -4.9008644e+01   6.9466591e+01   5.2682668e-01   7.1248895e-01  -1.7841544e-03   4.9909968e-03  -7.0166165e-01
  -4.9002895e+01   6.9530968e+01   5.2187210e-01   7.1253026e-01  -2.2153072e-03   5.3419764e-03  -7.0161587e-01
  -4.9004169e+01   6.9595345e+01   5.2522588e-01   7.1253639e-01  -2.2710881e-03   5.3265947e-03  -7.0160967e-01
  -4.9015522e+01   6.9665375e+01   5.2259582e-01   7.1262562e-01  -2.0515132e-03   4.9825944e-03  -7.0152217e-01
  -4.9011570e+01   6.9732468e+01   5.2350312e-01   7.1252871e-01  -1.7385236e-03   4.6741720e-03  -7.0162356e-01
  -4.9016872e+01   6.9802612e+01   5.2354968e-01   7.1254927e-01  -1.6502838e-03   4.4174525e-03  -7.0160455e-01
  -4.9017178e+01   6.9866447e+01   5.2301228e-01   7.1263534e-01  -1.5997107e-03   4.3657515e-03  -7.0151758e-01
  -4.9018898e+01   6.9927933e+01   5.2037364e-01   7.1264404e-01  -1.7386765e-03   4.3237568e-03  -7.0150858e-01
  -4.9022881e+01   6.9988007e+01   5.1664424e-01   7.1271777e-01  -1.8009772e-03   4.3799100e-03  -7.0143318e-01
  -4.9026485e+01   7.0051323e+01   5.1895934e-01   7.1284127e-01  -1.8345246e-03   4.3297959e-03  -7.0130783e-01
  -4.9027203e+01   7.0113297e+01   5.1598364e-01   7.1283543e-01  -1.6541381e-03   3.9779632e-03  -7.0131636e-01
  -4.9026924e+01   7.0173843e+01   5.1784033e-01   7.1279496e-01  -1.3284300e-03   3.6540029e-03  -7.0135993e-01
  -4.9032368e+01   7.0236443e+01   5.1926517e-01   7.1281356e-01  -1.2270188e-03   3.4657225e-03  -7.0134217e-01
  -4.9030487e+01   7.0303528e+01   5.1750463e-01   7.1280402e-01  -1.1350444e-03   3.3230055e-03  -7.0135272e-01
  -4.9029747e+01   7.0369019e+01   5.1654923e-01   7.1288526e-01  -1.2572991e-03   3.3984785e-03  -7.0126957e-01
  -4.9030945e+01   7.0437813e+01   5.1585352e-01   7.1303886e-01  -1.4447120e-03   3.5644996e-03  -7.0111221e-01
  -4.9029568e+01   7.0510307e+01   5.2263695e-01   7.1305817e-01  -1.4496946e-03   3.5204911e-03  -7.0109284e-01
  -4.9027576e+01   7.0581886e+01   5.2686828e-01   7.1302319e-01  -1.3327962e-03   2.9906048e-03  -7.0113105e-01
  -4.9030964e+01   7.0645744e+01   5.2694917e-01   7.1296352e-01  -1.2500988e-03   2.6322068e-03  -7.0119333e-01
  -4.9030849e+01   7.0703972e+01   5.2588344e-01   7.1294945e-01  -1.2866120e-03   2.6799426e-03  -7.0120740e-01
  -4.9028511e+01   7.0770500e+01   5.2734506e-01   7.1301508e-01  -1.5381493e-03   2.8451507e-03  -7.0113951e-01
  -4.9023941e+01   7.0842903e+01   5.2900785e-01   7.1305418e-01  -1.8568169e-03   2.9968498e-03  -7.0109832e-01
  -4.9021893e+01   7.0914291e+01   5.3138775e-01   7.1305448e-01  -2.0499153e-03   3.0228226e-03  -7.0109737e-01
  -4.9023586e+01   7.0975945e+01   5.2567291e-01   7.1299452e-01  -1.9610601e-03   2.8361604e-03  -7.0115942e-01
  -4.9027630e+01   7.1038872e+01   5.2904284e-01   7.1298289e-01  -1.7032258e-03   2.6409933e-03  -7.0117271e-01
  -4.9035038e+01   7.1104820e+01   5.2933216e-01   7.1305609e-01  -1.6348828e-03   2.3902287e-03  -7.0109928e-01
  -4.9031136e+01   7.1169243e+01   5.3048736e-01   7.1307707e-01  -1.5901767e-03   2.3028560e-03  -7.0107830e-01
  -4.9031395e+01   7.1225281e+01   5.2995187e-01   7.1304840e-01  -1.7307928e-03   2.3694579e-03  -7.0110691e-01
  -4.9036167e+01   7.1288116e+01   5.2856958e-01   7.1309948e-01  -1.9459256e-03   2.4918856e-03  -7.0105404e-01
  -4.9034370e+01   7.1343613e+01   5.2720886e-01   7.1314979e-01  -2.2591148e-03   2.6391083e-03  -7.0100141e-01
  -4.9037197e+01   7.1408066e+01   5.3016883e-01   7.1328998e-01  -2.4517742e-03   2.7412658e-03  -7.0085770e-01
  -4.9038559e+01   7.1465340e+01   5.2953792e-01   7.1330965e-01  -2.3807380e-03   2.5274237e-03  -7.0083869e-01
  -4.9039883e+01   7.1525215e+01   5.3014547e-01   7.1321648e-01  -2.3367461e-03   2.3402481e-03  -7.0093429e-01
  -4.9037899e+01   7.1577705e+01   5.2599853e-01   7.1318477e-01  -2.3942525e-03   2.3545686e-03  -7.0096630e-01
  -4.9035580e+01   7.1631546e+01   5.2910239e-01   7.1320796e-01  -2.5832572e-03   2.5593899e-03  -7.0094126e-01
  -4.9035446e+01   7.1691292e+01   5.2737510e-01   7.1333873e-01  -2.7612653e-03   2.6439561e-03  -7.0080727e-01
  -4.9035690e+01   7.1754425e+01   5.2821600e-01   7.1337175e-01  -2.8395003e-03   2.7285947e-03  -7.0077300e-01
  -4.9036858e+01   7.1815285e+01   5.2954680e-01   7.1341819e-01  -2.9513580e-03   2.7277453e-03  -7.0072526e-01
  -4.9033836e+01   7.1871506e+01   5.3118485e-01   7.1339697e-01  -2.9780576e-03   2.6420290e-03  -7.0074713e-01
  -4.9032677e+01   7.1931206e+01   5.3221393e-01   7.1345073e-01  -3.1341503e-03   2.6896121e-03  -7.0069152e-01
  -4.9032352e+01   7.1996544e+01   5.4052389e-01   7.1345073e-01  -3.2772464e-03   2.6320829e-03  -7.0069110e-01
  -4.9031395e+01   7.2055756e+01   5.4368305e-01   7.1342504e-01  -3.2729558e-03   2.2928915e-03  -7.0071840e-01
  -4.9039825e+01   7.2105049e+01   5.4742634e-01   7.1345234e-01  -3.1436761e-03   1.9594047e-03  -7.0069224e-01
  -4.9044743e+01   7.2148285e+01   5.5246210e-01   7.1349704e-01  -3.1896469e-03   1.7617393e-03  -7.0064706e-01
  -4.9046997e+01   7.2183655e+01   5.5625808e-01   7.1355021e-01  -3.5153257e-03   1.7506569e-03  -7.0059133e-01
  -4.9046997e+01   7.2183655e+01   5.5625808e-01   7.1355021e-01  -3.5153257e-03   1.7506569e-03  -7.0059133e-01
  -4.9046997e+01   7.2183655e+01   5.5625808e-01   7.1355021e-01  -3.5153257e-03   1.7506569e-03  -7.0059133e-01
  -4.9046997e+01   7.2183655e+01   5.5625808e-01   7.1355021e-01  -3.5153257e-03   1.7506569e-03  -7.0059133e-01
  -4.9046997e+01   7.2183655e+01   5.5625808e-01   7.1355021e-01  -3.5153257e-03   1.7506569e-03  -7.0059133e-01
  -4.9046997e+01   7.2183655e+01   5.5625808e-01   7.1355021e-01  -3.5153257e-03   1.7506569e-03  -7.0059133e-01
  -4.9046997e+01   7.2183655e+01   5.5625808e-01   7.1355021e-01  -3.5153257e-03   1.7506569e-03  -7.0059133e-01
  -4.9046997e+01   7.2183655e+01   5.5625808e-01   7.1355021e-01  -3.5153257e-03   1.7506569e-03  -7.0059133e-01
  -4.9046997e+01   7.2183655e+01   5.5625808e-01   7.1355021e-01  -3.5153257e-03   1.7506569e-03  -7.0059133e-01
  -4.9046997e+01   7.2183655e+01   5.5625808e-01   7.1355021e-01  -3.5153257e-03   1.7506569e-03  -7.0059133e-01
  -4.9046997e+01   7.2183655e+01   5.5625808e-01   7.1355021e-01  -3.5153257e-03   1.7506569e-03  -7.0059133e-01
  -4.9046997e+01   7.2183655e+01   5.5625808e-01   7.1355021e-01  -3.5153257e-03   1.7506569e-03  -7.0059133e-01
  -4.9046997e+01   7.2183655e+01   5.5625808e-01   7.1355021e-01  -3.5153257e-03   1.7506569e-03  -7.0059133e-01
  -4.9046997e+01   7.2183655e+01   5.5625808e-01   7.1355021e-01  -3.5153257e-03   1.7506569e-03  -7.0059133e-01
  -4.9046997e+01   7.2183655e+01   5.5625808e-01   7.1355021e-01  -3.5153257e-03   1.7506569e-03  -7.0059133e-01
  -4.9046997e+01   7.2183655e+01   5.5625808e-01   7.1355021e-01  -3.5153257e-03   1.7506569e-03  -7.0059133e-01
  -4.9046997e+01   7.2183655e+01   5.5625808e-01   7.1355021e-01  -3.5153257e-03   1.7506569e-03  -7.0059133e-01
  -4.9046997e+01   7.2183655e+01   5.5625808e-01   7.1355021e-01  -3.5153257e-03   1.7506569e-03  -7.0059133e-01
  -4.9046997e+01   7.2183655e+01   5.5625808e-01   7.1355021e-01  -3.5153257e-03   1.7506569e-03  -7.0059133e-01
  -4.9046997e+01   7.2183655e+01   5.5625808e-01   7.1355021e-01  -3.5153257e-03   1.7506569e-03  -7.0059133e-01
  -4.9046997e+01   7.2183655e+01   5.5625808e-01   7.1355021e-01  -3.5153257e-03   1.7506569e-03  -7.0059133e-01
  -4.9046997e+01   7.2183655e+01   5.5625808e-01   7.1355021e-01  -3.5153257e-03   1.7506569e-03  -7.0059133e-01
  -4.9046997e+01   7.2183655e+01   5.5625808e-01   7.1355021e-01  -3.5153257e-03   1.7506569e-03  -7.0059133e-01
  -4.9046997e+01   7.2183655e+01   5.5625808e-01   7.1355021e-01  -3.5153257e-03   1.7506569e-03  -7.0059133e-01
  -4.9046997e+01   7.2183655e+01   5.5625808e-01   7.1355021e-01  -3.5153257e-03   1.7506569e-03  -7.0059133e-01
  -4.9046997e+01   7.2183655e+01   5.5625808e-01   7.1355021e-01  -3.5153257e-03   1.7506569e-03  -7.0059133e-01
  -4.9046997e+01   7.2183655e+01   5.5625808e-01   7.1355021e-01  -3.5153257e-03   1.7506569e-03  -7.0059133e-01
  -4.9046997e+01   7.2183655e+01   5.5625808e-01   7.1355021e-01  -3.5153257e-03   1.7506569e-03  -7.0059133e-01
  -4.9046997e+01   7.2183655e+01   5.5625808e-01   7.1355021e-01  -3.5153257e-03   1.7506569e-03  -7.0059133e-01
  -4.9046997e+01   7.2183655e+01   5.5625808e-01   7.1355021e-01  -3.5153257e-03   1.7506569e-03  -7.0059133e-01
  -4.9046997e+01   7.2183655e+01   5.5625808e-01   7.1355021e-01  -3.5153257e-03   1.7506569e-03  -7.0059133e-01
  -4.9046997e+01   7.2183655e+01   5.5625808e-01   7.1355021e-01  -3.5153257e-03   1.7506569e-03  -7.0059133e-01
  -4.9046997e+01   7.2183655e+01   5.5625808e-01   7.1355021e-01  -3.5153257e-03   1.7506569e-03  -7.0059133e-01
  -4.9046997e+01   7.2183655e+01   5.5625808e-01   7.1355021e-01  -3.5153257e-03   1.7506569e-03  -7.0059133e-01
  -4.9046997e+01   7.2183655e+01   5.5625808e-01   7.1355021e-01  -3.5153257e-03   1.7506569e-03  -7.0059133e-01
  -4.9046997e+01   7.2183655e+01   5.5625808e-01   7.1355021e-01  -3.5153257e-03   1.7506569e-03  -7.0059133e-01
  -4.9046997e+01   7.2183655e+01   5.5625808e-01   7.1355021e-01  -3.5153257e-03   1.7506569e-03  -7.0059133e-01
  -4.9046997e+01   7.2183655e+01   5.5625808e-01   7.1355021e-01  -3.5153257e-03   1.7506569e-03  -7.0059133e-01
  -4.9046997e+01   7.2183655e+01   5.5625808e-01   7.1355021e-01  -3.5153257e-03   1.7506569e-03  -7.0059133e-01
  -4.9046997e+01   7.2183655e+01   5.5625808e-01   7.1355021e-01  -3.5153257e-03   1.7506569e-03  -7.0059133e-01
  -4.9046997e+01   7.2183655e+01   5.5625808e-01   7.1355021e-01  -3.5153257e-03   1.7506569e-03  -7.0059133e-01
  -4.9046997e+01   7.2183655e+01   5.5625808e-01   7.1355021e-01  -3.5153257e-03   1.7506569e-03  -7.0059133e-01
  -4.9046997e+01   7.2183655e+01   5.5625808e-01   7.1355021e-01  -3.5153257e-03   1.7506569e-03  -7.0059133e-01
  -4.9046997e+01   7.2183655e+01   5.5625808e-01   7.1355021e-01  -3.5153257e-03   1.7506569e-03  -7.0059133e-01
  -4.9046997e+01   7.2183655e+01   5.5625808e-01   7.1355021e-01  -3.5153257e-03   1.7506569e-03  -7.0059133e-01
  -4.9046997e+01   7.2183655e+01   5.5625808e-01   7.1355021e-01  -3.5153257e-03   1.7506569e-03  -7.0059133e-01
  -4.9046997e+01   7.2183655e+01   5.5625808e-01   7.1355021e-01  -3.5153257e-03   1.7506569e-03  -7.0059133e-01
  -4.9046997e+01   7.2183655e+01   5.5625808e-01   7.1355021e-01  -3.5153257e-03   1.7506569e-03  -7.0059133e-01
  -4.9046997e+01   7.2183655e+01   5.5625808e-01   7.1355021e-01  -3.5153257e-03   1.7506569e-03  -7.0059133e-01
  -4.9046398e+01   7.2152328e+01   5.5378205e-01   7.1354055e-01  -3.5976700e-03   1.6661517e-03  -7.0060098e-01
  -4.9042187e+01   7.2119835e+01   5.5211717e-01   7.1347493e-01  -3.5762005e-03   1.7195351e-03  -7.0066780e-01
  -4.9041912e+01   7.2074539e+01   5.5675912e-01   7.1348691e-01  -3.4038080e-03   1.6825165e-03  -7.0065659e-01
  -4.9040913e+01   7.2021858e+01   5.5863887e-01   7.1341527e-01  -3.3171214e-03   1.4404766e-03  -7.0073038e-01
  -4.9039791e+01   7.1957664e+01   5.5464149e-01   7.1331769e-01  -3.2710184e-03   1.3035526e-03  -7.0083028e-01
  -4.9044022e+01   7.1878456e+01   5.5368596e-01   7.1332455e-01  -3.1278150e-03   1.4583608e-03  -7.0082366e-01
  -4.9046780e+01   7.1791100e+01   5.5527127e-01   7.1334523e-01  -3.3263213e-03   1.5002571e-03  -7.0080161e-01
  -4.9037903e+01   7.1691437e+01   5.4992872e-01   7.1331823e-01  -3.3869818e-03   1.7389036e-03  -7.0082819e-01
  -4.9037880e+01   7.1572929e+01   5.5282772e-01   7.1326298e-01  -3.1330190e-03   1.7262686e-03  -7.0088565e-01
  -4.9040653e+01   7.1451973e+01   5.5526018e-01   7.1313947e-01  -2.7199821e-03   1.4338382e-03  -7.0101374e-01
  -4.9038486e+01   7.1312408e+01   5.4747140e-01   7.1293169e-01  -2.5315701e-03   1.2534324e-03  -7.0122612e-01
  -4.9041687e+01   7.1175056e+01   5.2904785e-01   7.1298075e-01  -2.3256494e-03   1.6130307e-03  -7.0117617e-01
  -4.9032772e+01   7.1021935e+01   5.2680808e-01   7.1296412e-01  -2.0836426e-03   2.4931140e-03  -7.0119125e-01
  -4.9034271e+01   7.0878288e+01   5.2963030e-01   7.1303076e-01  -2.1237014e-03   2.7690034e-03  -7.0112234e-01
  -4.9024242e+01   7.0734642e+01   5.2332991e-01   7.1280539e-01  -1.6079268e-03   2.5636796e-03  -7.0135367e-01
  -4.9022995e+01   7.0605370e+01   5.2428633e-01   7.1257842e-01  -1.3470434e-03   2.5483777e-03  -7.0158482e-01
  -4.9013195e+01   7.0462547e+01   5.1939595e-01   7.1251112e-01  -1.4239971e-03   2.7508584e-03  -7.0165223e-01
  -4.9008236e+01   7.0324722e+01   5.2449960e-01   7.1249700e-01  -1.3123534e-03   2.8677236e-03  -7.0166636e-01
  -4.9004158e+01   7.0180328e+01   5.1790148e-01   7.1237034e-01  -1.3476391e-03   2.7487809e-03  -7.0179534e-01
  -4.9000610e+01   7.0035660e+01   5.1651865e-01   7.1218002e-01  -1.2283721e-03   3.0925174e-03  -7.0198733e-01
  -4.8985744e+01   6.9882523e+01   5.2441645e-01   7.1177161e-01  -1.3394037e-03   3.3200604e-03  -7.0240015e-01
  -4.8986004e+01   6.9741692e+01   5.2546173e-01   7.1164048e-01  -1.6234231e-03   3.3126744e-03  -7.0253247e-01
  -4.8986237e+01   6.9592117e+01   5.2338439e-01   7.1165407e-01  -2.0880869e-03   3.9544380e-03  -7.0251411e-01
  -4.8976128e+01   6.9437798e+01   5.1876020e-01   7.1163183e-01  -2.6705770e-03   4.5543127e-03  -7.0253098e-01
  -4.8964840e+01   6.9273460e+01   5.2296418e-01   7.1152025e-01  -2.3228612e-03   4.8630773e-03  -7.0264322e-01
  -4.8962276e+01   6.9114075e+01   5.2497751e-01   7.1129656e-01  -2.3079463e-03   4.4151624e-03  -7.0287263e-01
  -4.8959534e+01   6.8942574e+01   5.1177847e-01   7.1112579e-01  -1.9939346e-03   4.4049686e-03  -7.0304638e-01
  -4.8958424e+01   6.8767464e+01   5.1651043e-01   7.1100551e-01  -1.5455767e-03   4.5044180e-03  -7.0316857e-01
  -4.8961857e+01   6.8589096e+01   5.2425265e-01   7.1089870e-01  -1.4896495e-03   4.4603925e-03  -7.0327693e-01
  -4.8961411e+01   6.8418266e+01   5.2278626e-01   7.1068805e-01  -1.8281876e-03   4.6003088e-03  -7.0348805e-01
  -4.8956059e+01   6.8234268e+01   5.3157949e-01   7.1045679e-01  -2.3713605e-03   5.4382607e-03  -7.0371401e-01
  -4.8945732e+01   6.8048050e+01   5.3659171e-01   7.1031994e-01  -3.5249419e-03   6.1837872e-03  -7.0384115e-01
  -4.8941406e+01   6.7866844e+01   5.2048779e-01   7.1049732e-01  -4.2449315e-03   6.7183943e-03  -7.0365322e-01
  -4.8937206e+01   6.7657715e+01   5.0965816e-01   7.1055812e-01  -3.4368685e-03   7.0397328e-03  -7.0359313e-01
  -4.8941681e+01   6.7466988e+01   5.3035015e-01   7.1036333e-01  -2.5627543e-03   6.6341492e-03  -7.0379746e-01
  -4.8945244e+01   6.7275093e+01   5.1315975e-01   7.1000075e-01  -2.1627240e-03   6.0046767e-03  -7.0417017e-01
  -4.8946514e+01   6.7072647e+01   5.1895225e-01   7.0985925e-01  -1.5224871e-03   6.3120439e-03  -7.0431179e-01
  -4.8953560e+01   6.6876945e+01   5.2818459e-01   7.0988566e-01  -2.0461592e-03   6.3966848e-03  -7.0428318e-01
  -4.8943913e+01   6.6667557e+01   5.1674300e-01   7.0982295e-01  -2.4934197e-03   7.0359982e-03  -7.0433885e-01
  -4.8935390e+01   6.6462341e+01   5.3900272e-01   7.0963746e-01  -2.3554733e-03   7.1276585e-03  -7.0452523e-01
  -4.8951969e+01   6.6245850e+01   5.2002037e-01   7.0968163e-01  -2.3392776e-03   6.5443027e-03  -7.0448649e-01
  -4.8960461e+01   6.6026215e+01   5.4161149e-01   7.0963842e-01  -1.5479710e-03   6.8172445e-03  -7.0452958e-01
  -4.8972168e+01   6.5816605e+01   5.2990592e-01   7.0956558e-01  -2.2279653e-03   5.7625477e-03  -7.0461053e-01
  -4.8981125e+01   6.5598343e+01   5.0148445e-01   7.0967734e-01  -1.4592115e-03   5.6562629e-03  -7.0450085e-01
  -4.8993034e+01   6.5370262e+01   5.1651430e-01   7.0988148e-01  -1.2627613e-03   6.3726204e-03  -7.0428944e-01
  -4.8980801e+01   6.5160065e+01   5.0868863e-01   7.0998132e-01  -1.7136098e-03   6.7834589e-03  -7.0418394e-01
  -4.8979168e+01   6.4928658e+01   4.3917811e-01   7.0984775e-01  -1.2360278e-03   6.2880889e-03  -7.0432419e-01
  -4.8985256e+01   6.4697617e+01   4.2540300e-01   7.0961410e-01   1.7795940e-03   8.0978908e-03  -7.0453995e-01
  -4.8983273e+01   6.4460732e+01   4.0066606e-01   7.0968896e-01   2.9904770e-03   1.0376062e-02  -7.0443058e-01
  -4.8988918e+01   6.4219917e+01   4.9367514e-01   7.1010160e-01   4.1221655e-03   1.2555186e-02  -7.0397341e-01
  -4.8983585e+01   6.3986980e+01   4.9916306e-01   7.1009314e-01   2.1191721e-03   1.0723419e-02  -7.0402110e-01
  -4.8991009e+01   6.3768578e+01   4.7382167e-01   7.1003097e-01   1.1398048e-03   8.5480576e-03  -7.0411581e-01
  -4.8991638e+01   6.3543373e+01   4.7962177e-01   7.0978707e-01   6.3310354e-04   7.1258373e-03  -7.0437813e-01
  -4.8986534e+01   6.3339226e+01   4.4865817e-01   7.0957953e-01   3.0321456e-04   6.4275120e-03  -7.0459419e-01
  -4.8986820e+01   6.3104115e+01   4.5346549e-01   7.0967215e-01   2.8748217e-04   7.3818117e-03  -7.0449156e-01
  -4.8985195e+01   6.2892910e+01   4.6999338e-01   7.0973480e-01   1.7560678e-06   7.4332007e-03  -7.0442796e-01
  -4.8975742e+01   6.2671963e+01   4.0737170e-01   7.0947206e-01   5.7154609e-04   6.5334281e-03  -7.0470124e-01
  -4.8982441e+01   6.2446510e+01   3.9416069e-01   7.0942312e-01   2.6966243e-03   6.8516303e-03  -7.0474255e-01
  -4.8988697e+01   6.2207336e+01   4.4000936e-01   7.0938635e-01   3.9419038e-03   8.5224379e-03  -7.0475554e-01
  -4.8983246e+01   6.1970783e+01   4.6152478e-01   7.0946997e-01   1.9638948e-03   8.9766067e-03  -7.0467395e-01
  -4.8971523e+01   6.1749557e+01   4.5040983e-01   7.0969635e-01  -3.1624254e-04   8.1928400e-03  -7.0445824e-01
  -4.8963203e+01   6.1551468e+01   4.4908574e-01   7.0973909e-01  -6.4845127e-04   7.5964704e-03  -7.0442164e-01
  -4.8959572e+01   6.1333736e+01   4.5578557e-01   7.0971775e-01  -5.7045167e-04   7.5143483e-03  -7.0444411e-01
  -4.8957306e+01   6.1121857e+01   4.5835197e-01   7.0965546e-01  -7.3229359e-04   7.6676249e-03  -7.0450509e-01
  -4.8959377e+01   6.0916115e+01   4.5136315e-01   7.0969933e-01  -1.3493150e-03   7.9346029e-03  -7.0445698e-01
  -4.8950142e+01   6.0699936e+01   4.4949663e-01   7.0987123e-01  -1.7791225e-04   7.8004282e-03  -7.0428658e-01
  -4.8962559e+01   6.0474533e+01   5.0267661e-01   7.1024823e-01   2.2977600e-05   7.8905215e-03  -7.0390540e-01
  -4.8974648e+01   6.0268913e+01   5.0163162e-01   7.1045357e-01  -2.6041728e-03   8.3660726e-03  -7.0368785e-01
  -4.8956615e+01   6.0063179e+01   4.8367941e-01   7.1037614e-01  -4.0642833e-03   8.6494610e-03  -7.0375568e-01
  -4.8952370e+01   5.9846523e+01   5.1922411e-01   7.1019757e-01  -1.9906799e-03   7.7665332e-03  -7.0395505e-01
  -4.8971699e+01   5.9636620e+01   5.4171878e-01   7.1020949e-01  -1.4736670e-03   5.8995457e-03  -7.0396250e-01
  -4.8972954e+01   5.9418987e+01   5.4328865e-01   7.1028298e-01  -2.9189563e-03   4.4593140e-03  -7.0389444e-01
  -4.8970356e+01   5.9222019e+01   5.4289794e-01   7.1014035e-01  -3.7318273e-03   3.5567055e-03  -7.0403957e-01
  -4.8978298e+01   5.9005352e+01   5.8204383e-01   7.1011692e-01  -4.5892787e-03   3.4037917e-03  -7.0405889e-01
  -4.8978188e+01   5.8810505e+01   5.6012195e-01   7.1012247e-01  -8.0479505e-03   3.2412494e-03  -7.0402300e-01
  -4.8947460e+01   5.8609329e+01   5.1488113e-01   7.1032238e-01  -9.0646688e-03   4.4705244e-03  -7.0380223e-01
  -4.8947842e+01   5.8376263e+01   6.1825979e-01   7.1094465e-01  -8.7439837e-03   6.2950253e-03  -7.0316368e-01
  -4.8954613e+01   5.8173843e+01   5.7659358e-01   7.1072805e-01  -1.0062391e-02   2.3240005e-03  -7.0338935e-01
  -4.8953701e+01   5.7983276e+01   5.5208641e-01   7.1018797e-01  -7.0060161e-03   8.5687492e-04  -7.0397502e-01
  -4.8991711e+01   5.7748043e+01   6.3423806e-01   7.0995051e-01  -5.1980563e-03  -1.1424616e-04  -7.0423067e-01
  -4.8998302e+01   5.7531425e+01   5.9025979e-01   7.0968431e-01  -8.2838209e-03  -1.6265539e-03  -7.0446748e-01
  -4.8985352e+01   5.7328499e+01   5.7414150e-01   7.0993841e-01  -1.0057586e-02   4.2702025e-04  -7.0419014e-01
  -4.8969738e+01   5.7097576e+01   5.4935551e-01   7.1038812e-01  -1.1652472e-02   2.3315456e-03  -7.0370811e-01
  -4.8959370e+01   5.6868301e+01   5.8986461e-01   7.1090555e-01  -1.1667360e-02   2.5386219e-03  -7.0318443e-01
  -4.8940643e+01   5.6666237e+01   5.2370113e-01   7.1060413e-01  -9.4719492e-03   9.8441506e-04  -7.0352590e-01
  -4.8978271e+01   5.6405891e+01   6.0413802e-01   7.1090543e-01  -6.1964579e-03   1.7907366e-03  -7.0325637e-01
  -4.8991402e+01   5.6167545e+01   6.0106677e-01   7.1064788e-01  -7.0719724e-03  -5.6814053e-04  -7.0351040e-01
  -4.8989300e+01   5.5958405e+01   5.7932860e-01   7.1069348e-01  -7.5764800e-03  -7.3941820e-04  -7.0345891e-01
  -4.8993431e+01   5.5717506e+01   5.9698772e-01   7.1100473e-01  -7.4255643e-03  -2.8251010e-04  -7.0314628e-01
  -4.8992085e+01   5.5491188e+01   5.9530079e-01   7.1106553e-01  -8.5761640e-03  -4.4930438e-04  -7.0307165e-01
  -4.8981300e+01   5.5253654e+01   5.6812978e-01   7.1090865e-01  -8.7542385e-03   7.2296163e-05  -7.0322829e-01
  -4.8981304e+01   5.5010349e+01   5.6974715e-01   7.1107596e-01  -9.0174442e-03   4.9899082e-04  -7.0305556e-01
  -4.8975792e+01   5.4764221e+01   5.0336415e-01   7.1143728e-01  -9.0107694e-03   1.2255464e-03  -7.0268911e-01
  -4.8967163e+01   5.4521778e+01   5.0371242e-01   7.1173155e-01  -5.6687789e-03   3.0873874e-03  -7.0242029e-01
  -4.8983227e+01   5.4247169e+01   5.6005377e-01   7.1169490e-01  -4.5977100e-03   3.4317249e-03  -7.0246369e-01
